ply
format ascii 1.0
element vertex 710
property float x
property float y
property float z
property uchar red
property uchar green
property uchar blue
end_header
-345.65522593080857 -4111.984981475714 -4478.614178301824 135 115 82
-179.65658438750737 -3471.407885380315 -4230.870445948751 123 100 84
-554.4091338054689 -3565.302967173886 -4269.63027784279 46 29 19
-1134.5520197279618 -4053.805794553454 -4478.355861905472 34 21 13
1803.305092578718 -2641.512055847742 -4366.922279629942 54 13 0
-2864.4031341933937 -4015.5483810984865 -4647.783371925776 61 43 23
-1299.7325936666894 -4343.061631750908 -4579.8730024457245 65 42 24
-1341.8679278843879 -2887.948059948151 -4050.645514452454 101 85 62
929.8936945827548 -4530.592089314513 -4715.412500321206 130 104 81
-2047.5475864621512 -3944.088887995163 -4528.7864273179575 63 44 27
-1681.8386395611444 -3601.5496152791115 -4380.367112273482 55 34 15
3196.3180547508855 -3650.913113356735 -5098.069478023072 125 105 81
-3130.359093283332 -3709.0224024721247 -4620.233196756928 41 28 19
2906.955135495118 -4354.806520752794 -5096.7526493393625 139 119 92
-522.1128651318962 -3203.8270349675095 -4109.031764458166 137 115 92
-965.0591420062253 -3727.8725442470923 -4353.036913225008 129 103 78
-1126.8398439276286 -4356.683283140628 -4574.431343524772 126 103 87
1552.255443524314 -4102.771360231411 -4704.883709532557 108 90 66
-1871.443833916475 -4748.963522046033 -4728.252446881009 126 105 78
1869.0202129125687 -3568.2442265728378 -4647.329829655786 90 67 49
1.4881297625381333 -3586.1836718148297 -4287.937328577337 157 141 118
2603.490660684613 -4121.971964345472 -4976.348252723206 70 49 32
1219.9341269709887 -3300.306295838191 -4379.679763955579 18 7 5
1210.8521059033706 -4291.5796661072645 -4689.880351246861 61 39 25
-896.9715488347204 -4114.616949031683 -4486.405698642912 133 111 88
-1420.1437144974007 -4357.822021993879 -4592.44405675153 149 129 102
550.2940993433538 -3440.8259987468437 -4286.526702712726 169 151 129
-507.406363449475 -3328.184720444006 -4165.539377792488 35 18 8
3227.896659503927 -1079.1385993040478 -5269.550786915053 118 106 92
-1251.8675698624413 -3724.2655131731 -4373.397871725436 50 34 18
-3085.194386444376 -3911.69932935885 -4655.508615536598 36 19 9
955.1659719239688 -3587.9942245379048 -4417.671490000681 147 129 109
920.7880828790323 -3250.9051559445916 -4283.998867591819 17 6 0
-2117.533338002913 -4163.287108011067 -4598.022524755745 144 123 96
-1103.7948513653828 -3473.032482320819 -4265.791788685194 126 102 76
-1822.8310474366676 -3667.4081692854747 -4419.306314271879 140 114 97
2544.044178767399 -4909.290677309459 -5099.8753811964425 145 125 92
-408.5840474506049 -3968.7872084451146 -4424.921843456931 151 130 109
-2832.4153831697263 -3538.5765086120573 -4534.347606702242 118 96 73
-1354.2081274045854 -2975.226605312706 -4091.5161182626116 121 99 78
1979.4982707317185 -2643.782505603172 -4448.136368187732 90 47 15
-400.06190445191623 -3287.1518928620794 -4145.920084993236 44 26 12
195.24664335877927 -3937.2498430395035 -4439.319154119258 38 24 15
-2080.5103222293415 -3599.302704835827 -4435.2561180360035 60 42 28
3406.1484118833955 -3446.398646232286 -5156.082909567998 130 109 90
-2575.02747017338 -4497.450036479777 -4724.204812841721 135 110 88
-1308.9430145307058 -3486.1487705803834 -4293.455338426618 121 96 74
-1896.3430153710462 -3270.9791979413567 -4300.253328202392 24 17 7
-175.79548513081446 -3258.0287324457295 -4135.86756962669 132 107 87
-2241.9292017240414 -4663.528083744486 -4734.305018977355 58 37 20
2476.3259755409613 -3809.6685163987418 -4884.214718267897 145 121 97
1422.3639121060717 -4874.207824716757 -4879.477853192206 138 116 95
2215.6357643497427 -3330.768602925357 -4709.699113813501 127 106 85
-810.9677698993644 -3996.0980790054455 -4441.522006920063 149 127 106
2564.796077230868 -4242.358882365863 -4986.954411256996 62 36 19
-572.9911163339118 -3518.349467212797 -4250.527930375167 121 99 78
-2127.403075192576 -4297.166944655277 -4632.864338170958 48 30 20
-931.6699534706624 -3829.226425679474 -4387.247325413857 150 128 107
1737.9862530063551 -3421.540023667128 -4569.505565745794 135 116 101
1786.4939633467923 -3225.602459479503 -4535.052796646478 128 107 88
2074.0929634954973 -2383.9962323880823 -4429.863964066622 138 90 54
-2835.4721811948357 -4288.204264889404 -4704.006917279532 44 24 15
2053.8461651957373 -4255.0930211411405 -4856.900507204318 128 107 86
-937.6530907110928 -3538.6849334952926 -4278.013965905557 138 117 90
-1276.559730590445 -4597.334305639991 -4653.187648319467 64 42 28
-780.00845044501 -2909.549177260708 -3983.4952606262555 83 60 46
-133.95513082744222 -3940.4709294969707 -4420.72979465613 139 118 101
2140.7197637481618 -3384.407520095449 -4694.632499706449 134 113 94
-2134.792581901127 -4251.234834442209 -4621.345477992397 52 34 20
372.2864942251969 -3805.3680308519774 -4406.075515878589 110 91 74
359.492757829058 -3924.3555836932705 -4449.372480989499 74 53 34
-2023.7931316513943 -4190.230552222155 -4594.837054288912 145 124 97
1902.4006253931284 -2722.487060003327 -4435.242329744984 125 89 63
843.6465092996214 -3342.5607151293993 -4302.879209484983 136 114 93
1035.085643796919 -4527.438866615974 -4729.148903707986 136 117 87
-2293.514729682099 -3808.527821000209 -4523.559658501441 112 88 64
1357.5414199303777 -4780.800428652898 -4846.794894488379 84 59 37
1497.0406382347023 -5018.642141674715 -4926.793679346679 133 112 83
-170.43215792005796 -3246.6827192254746 -4130.8743083180525 58 35 19
2752.558454613416 -4419.925837361154 -5065.973748211989 44 21 15
2565.1117596196136 -2083.9879486078294 -4659.579050150749 60 18 4
-331.0557552148386 -3684.8035804307183 -4316.6957824092015 51 37 26
-2118.4017522391027 -4361.36380736341 -4649.503277105529 78 52 35
-13.60209605635519 -3629.8425065803385 -4305.020150940921 150 132 112
-799.5544914452304 -4263.69423118946 -4532.701664147658 127 106 79
2187.2902213607113 -4838.946340706456 -5011.4468421106085 50 27 11
-1573.4742239434956 -3633.0621486031437 -4376.396703328 72 51 32
2886.3571286261463 -3943.5018999071563 -5032.155303380808 71 48 32
-550.8190626610279 -4396.109783945664 -4573.025318145104 127 105 82
1377.7950512507487 -3616.691917258462 -4524.491608824856 145 123 102
335.58041110572026 -3520.8676446048025 -4290.117761135347 162 136 119
-1168.4923853225575 -2883.4228047063502 -4018.5658211306027 150 134 111
-1824.8554828347449 -4622.4808385188235 -4693.605212464793 43 29 16
228.39477741953874 -3444.7826093838908 -4247.735780947617 82 57 35
-1708.4869613486385 -4217.111610227768 -4572.634082828439 56 36 25
2447.2388729709623 -2664.6001265090254 -4670.921740852328 138 84 56
1735.594416216058 -4175.8246775643465 -4764.235179711837 133 113 89
-828.7552417530387 -2807.964766855512 -3934.3358839538027 179 166 149
-127.2285934677509 -3767.9281051855273 -4355.221197726763 154 136 116
-968.585941656998 -4631.635935099976 -4651.807880448023 132 116 93
2140.7159785313906 -4334.290520968003 -4896.93397424213 168 149 119
339.51443477524924 -3004.4783495305624 -4061.619013625632 113 94 77
2939.698230119675 -3450.1614214514675 -4989.156680856157 55 36 19
-1649.3668976334875 -3509.0825970202304 -4343.711478106878 50 32 18
-1274.9490771622818 -2926.602557263659 -4057.4359800942075 141 116 94
-704.6217793015701 -3808.806613561743 -4369.23674449028 154 129 107
-1928.1049809043482 -4052.3230947908737 -4547.432767011682 144 123 106
2580.5447165834494 -2270.7845272385885 -4684.116753258407 50 18 7
1600.1730454467752 -5169.799685352477 -4978.70452505774 127 105 82
1450.856139835121 -3414.4258694242294 -4482.151356123627 25 8 0
1597.030407429719 -5366.013483267302 -5022.550894719688 79 53 40
-44.602588192268065 -3002.705672159309 -4018.286426391983 62 39 31
-552.9594622989013 -3175.721795671604 -4097.02709698744 129 104 82
-131.2178790781598 -3701.8140012518365 -4329.035165989358 71 50 33
-1235.708119448461 -3178.1873037012097 -4160.511384097747 91 66 46
-699.3667901208742 -3033.9038519181368 -4036.922857879659 65 43 22
-1990.9336751502085 -3870.7687575740615 -4502.700507478995 137 115 92
1928.383955714577 -4555.604644832048 -4896.775174533357 158 137 116
-1845.3676470691362 -4298.29968523971 -4608.433748326691 136 114 91
511.9232552969454 -4248.288552678293 -4577.727570462798 135 113 90
246.33832475783296 -3620.741746739002 -4321.862359281836 38 18 7
2385.8397389294387 -4416.133308438632 -4971.776338121823 147 130 104
579.8069714587565 -3772.0773467286767 -4420.208997439741 116 94 71
2511.687839589758 -3236.687089314052 -4806.009432471558 63 44 30
-836.2990150556858 -2908.6439572743775 -3987.5333005322013 139 117 94
2645.037598161208 -4344.8662429618635 -5026.669602509212 129 107 86
-896.1719230783079 -3251.7184966924547 -4154.605374904762 134 112 89
-2763.5130874395045 -4001.8083471270274 -4632.052897933033 119 95 71
691.5000176284897 -4065.779128076988 -4537.790875516936 142 120 99
2955.463193545361 -3575.304113786388 -5008.360895767364 136 118 98
1041.7465642885704 -5182.075653739223 -4905.024915710665 115 93 69
-2635.4288885075807 -4139.762888545777 -4649.588276896734 66 45 26
1823.0993523098289 -3338.9235041617417 -4575.240435426377 58 39 22
113.44554674125162 -3456.5434122610327 -4240.773885270484 63 41 27
-2131.1147368605066 -4340.7867396990305 -4645.11988849271 142 123 106
-293.1957915629578 -4004.301417220444 -4439.684854007188 129 108 81
149.90012191595025 -3927.4606153392033 -4432.766130995302 133 111 87
-2832.063744193667 -4649.2465825174995 -4779.0584953074185 125 105 78
1014.4237348423629 -3317.0792777309453 -4332.606034928069 69 46 30
1822.9727921750414 -4655.978191867153 -4899.184641832109 137 115 94
2408.6249926712726 -3626.416735080692 -4829.060736165216 69 48 29
2018.4798430306544 -4249.17065258586 -4846.211520738816 130 112 90
2030.8033544325701 -2659.266586681983 -4478.313334753139 118 78 66
818.4965678360431 -3137.82169603688 -4214.987541887761 120 87 68
191.49120593601396 -4399.971521835681 -4599.502166089124 43 25 15
2095.7664017916154 -3667.371167055207 -4739.606708525263 68 47 30
3298.482187281582 -3448.0159974478893 -5116.935731999557 141 122 105
1612.043977659527 -3859.52259353457 -4652.089241026203 74 53 34
1979.917220104241 -3887.7731532225316 -4755.523637394404 64 46 32
-342.90399764229767 -3238.637836628207 -4124.057729023729 56 37 20
2487.9417026432548 -3801.930654192941 -4887.45456114811 141 121 96
506.488583835227 -4235.4266978921205 -4572.353561751946 78 56 35
-1773.2250444214849 -3361.64351414206 -4311.489160287899 75 52 38
-2285.8956855293973 -3071.3060749762426 -4309.465580569494 45 27 13
-89.72430142863267 -4773.28729469783 -4700.184638496047 120 99 80
2145.968589624516 -4760.548035924122 -4987.038091185383 149 132 114
-586.3189377613551 -2983.3347693316914 -4005.169448137534 53 30 14
700.7013235447483 -3266.0769119431384 -4242.751113176237 137 119 97
-1369.6546597435613 -4024.4865294751803 -4485.03060582126 121 97 85
627.7714798380259 -4274.321680294351 -4597.865279795556 77 56 37
374.3278298134688 -3664.788418854334 -4352.28344920015 145 122 104
2053.216556633354 -3870.8050720660694 -4772.062576185466 117 99 75
745.2923373710612 -3180.9767398621457 -4216.993801294253 103 86 70
-649.5982112769968 -4030.9147588405253 -4449.852070216559 119 97 74
-46.45606028396989 -3402.924145306402 -4206.691219828376 96 73 55
-950.4606576733977 -3062.416195841919 -4075.040158050635 49 29 20
912.0889143880287 -3868.69258812553 -4506.434512433523 75 53 32
2189.2352050395416 -4371.233341281802 -4916.120772942541 132 110 87
1780.6025784774358 -2386.600903841655 -4277.103472986022 85 39 6
1097.328861310686 -3997.1815068893898 -4580.495331601549 69 48 31
-961.9913104464913 -3837.5378726919316 -4392.588428417461 151 130 109
1065.868041919265 -4114.807647540511 -4610.957271191208 132 107 85
-451.78066851009953 -3969.404459390676 -4426.385336120881 127 106 85
1879.6435590523542 -3756.4762170053928 -4697.517622248826 45 29 14
2967.4566985376246 -4080.7275564554257 -5074.194646787191 138 118 94
-1850.197735241704 -4124.306845060542 -4559.625330540912 137 113 89
-1076.961810242231 -4105.427902344348 -4491.458629862082 58 37 16
2708.8563044409475 -3383.206233269974 -4896.751388520748 119 102 82
706.3287625704854 -2771.782292341816 -4017.4179609903954 146 102 65
-1055.9608144987455 -3823.1163484302865 -4393.837252749984 133 114 100
-267.1162752499568 -4687.811830239989 -4668.580209428313 151 129 106
376.225533792507 -3099.0101979539104 -4110.892415981218 114 92 69
1732.3395678405846 -3741.918152501372 -4652.341788623598 52 33 19
235.50586064006487 -4406.51257103332 -4604.132414145473 68 42 29
-561.9508093624142 -3027.0353638936626 -4025.7587931835496 112 90 69
215.95800789456803 -3053.1474695167876 -4066.9343408330237 58 39 22
3254.026865101734 -3758.6962707140156 -5127.164922519816 150 130 106
2434.7415188209143 -4168.40905364073 -4938.074399579423 81 59 38
-1308.0746970692235 -4167.098543574912 -4526.081522637801 142 123 93
-822.284873261389 -3012.5427924037067 -4036.516385598206 75 52 36
-299.3469773441971 -3134.3399450940815 -4074.6512999052006 48 27 8
3427.592395766469 -3596.1416842656595 -5173.4601559498105 140 120 96
-1873.0533296035392 -4043.606878451908 -4538.839369269122 43 23 14
127.32419968179728 -4357.807664996733 -4581.225011076033 37 20 12
598.287927050945 -4322.31171717551 -4610.05744605117 118 97 70
1354.6151851214572 -5002.360584483921 -4901.940269054706 148 127 100
-1294.2776264570812 -4569.951223298372 -4645.444326401344 145 127 107
1099.4447168290285 -4120.457885498667 -4619.447234832509 62 39 25
643.592455010205 -4011.5853875947223 -4513.437891351312 135 113 89
1300.5333830105467 -2981.957747609349 -4280.452230357123 151 105 71
1273.858386898351 -2998.783963731845 -4276.20828900025 62 18 5
-1099.5086896362807 -4349.439076805274 -4570.880364539533 137 115 101
-1771.0925855138908 -4221.844232129114 -4579.823803975522 125 101 75
1408.5037502355171 -4815.1807493030665 -4863.929506596849 132 110 87
-575.2716086051341 -4145.922222091913 -4490.396803648162 95 73 52
1810.9302717123953 -4198.933877165036 -4787.305915634746 93 69 43
-727.188620860137 -3594.82589822713 -4287.474936256332 48 28 17
123.09902636436087 -3578.3044586132996 -4292.86885024117 72 51 32
1341.3443399039913 -3386.5424762491284 -4442.809207503825 128 106 85
-258.4539534657594 -2863.407460767287 -3936.3204043367373 122 100 79
2297.4014277788015 -2654.525813760628 -4603.66404732955 95 45 12
-5.952997882395275 -3526.4543637833267 -4262.871905458427 131 111 86
-892.2040875839654 -2947.7039175670598 -4011.8365997851115 153 129 103
-922.620548124936 -4303.124822537745 -4549.657702155778 137 111 86
1664.1984487912193 -3928.1907734858614 -4681.820079720319 132 107 100
-2110.4874862420706 -4496.189578530552 -4683.574404071115 45 29 16
-37.82630602382329 -3125.8603269708583 -4078.910741956633 143 122 105
2328.5580813924594 -4044.7000395036225 -4886.113573170577 79 59 35
-3090.811195506058 -3605.496133804326 -4591.720038866651 106 85 64
-2543.826031304251 -4271.337535823463 -4669.881302618704 116 95 76
1593.3611748160306 -2812.533223875779 -4337.8435702551 28 10 0
1306.7577242877464 -4864.440936927746 -4858.9629481784295 152 131 112
1732.0749810053078 -2588.9827588548005 -4320.440415753664 112 70 46
2602.8599444562165 -2033.979642226641 -4676.083840098052 138 84 50
2161.1132908369773 -3717.6476298566313 -4769.921944769945 132 112 88
-168.34946019423202 -3941.7284054016977 -4420.049215900964 28 18 8
-533.0303287623753 -3058.0702924370185 -4039.218773338615 44 22 8
-1055.9608144987455 -3823.1163484302865 -4393.837252749984 133 114 100
-918.6286229848669 -3568.5151481069565 -4288.26193438468 138 117 96
-1626.5674481726817 -4700.409489309166 -4700.350628812021 126 106 82
1533.476677986535 -3889.579325641431 -4640.3099877731665 126 109 81
-2477.7092151193083 -4116.016070803904 -4624.956182666984 42 25 9
694.4948728392153 -4109.943918964916 -4552.804385352898 146 123 105
1685.1019597976579 -3864.53304262528 -4672.4559070199 40 22 8
2153.237706282887 -4545.3410586359 -4945.604435156881 67 42 22
-1888.1275074770142 -3394.8900804280433 -4341.564657966039 150 129 108
489.5084778463418 -2601.453400535544 -3884.753904243082 120 112 93
2134.43330303747 -3865.967697497533 -4793.114159686178 75 57 35
189.06391110522935 -3499.7610305460935 -4267.2266885786685 126 105 78
-2515.3733859920203 -4016.4060166443714 -4606.5352558833265 118 98 74
2691.275011419615 -4000.9788206985736 -4981.114948309346 94 71 55
-1405.6717422703694 -3642.786178895281 -4360.660405277795 133 109 83
463.3009387344993 -4076.6554843642766 -4513.506652703394 71 48 40
783.4711488077056 -4732.708934765455 -4755.252358059366 111 87 61
1434.733186037718 -4100.506230341594 -4677.760472954397 113 95 73
-1053.3205378990929 -3397.0098716713796 -4229.431320773169 55 32 16
-834.5801355062518 -3551.251082805761 -4275.7748186573135 126 104 80
3201.557733204864 -4247.385135526063 -5164.73340080804 121 100 79
686.3834923091446 -2901.9298209313642 -4075.28999499339 91 60 40
1270.229970990731 -3247.4677399315615 -4372.99653599411 41 12 0
349.1303297153186 -3792.538392949954 -4398.754031883189 132 111 90
-875.8784787025833 -3625.7092088182867 -4307.698716707092 144 120 96
-421.6676365999515 -4442.321739813468 -4588.363168783537 56 34 21
1135.0956522390782 -4532.260835595415 -4746.237237680458 78 53 33
2402.1562738981643 -4062.0632799553005 -4908.36989038914 140 120 93
1354.3919428194197 -4488.1518747989085 -4769.5338416788545 42 25 15
489.050280896121 -3832.9305916768167 -4429.965552619565 65 42 24
-398.027123814565 -4485.993194787642 -4602.3607419216005 55 37 23
-509.04437470118523 -4668.844233791038 -4657.902571813454 145 126 109
-902.9151833516199 -2906.278200419539 -3993.7085385012165 94 68 43
1620.4093486207523 -3431.104135610571 -4536.136428349207 135 115 88
860.988881697404 -3478.335786155429 -4357.64668211301 66 43 25
2142.3371169589495 -3521.6005034391346 -4722.674476497855 123 105 85
-554.7348489602492 -3046.9881215154337 -4035.0091842023194 117 95 72
-453.4072139392653 -3093.6624455219553 -4055.1363136721657 133 108 86
535.9400214964917 -3826.7790514867174 -4433.545447774188 154 136 114
104.68414774341329 -3031.9326731420783 -4045.0244403374013 61 38 22
-636.1466053171521 -4986.421030306912 -4749.750010142251 27 12 5
-2974.637122352551 -3477.8180079598314 -4545.0050927892435 149 125 99
-50.4409779715533 -3278.5389635503316 -4150.358021844074 70 49 30
1387.2068245943844 -2187.3241575421966 -4013.8006963786556 134 89 58
-2743.423255789392 -4001.190398088772 -4630.556945360135 42 24 2
-2936.4425117185892 -3733.3549797377777 -4595.318000862393 42 25 9
-1700.0550430926169 -3534.6317645647596 -4359.240499201 142 121 102
-2044.5509225270778 -4465.197835578251 -4669.775693359744 58 39 22
-1574.4840870568298 -3246.539863872561 -4238.073971484623 64 43 26
-788.1040142245674 -3118.333028969338 -4084.608480951191 78 50 36
495.1561441444507 -4403.2619081427665 -4626.254063637735 49 29 18
-1489.7526054092177 -3620.6028557864724 -4362.020396537154 49 28 9
2615.6621152494236 -2245.328928605839 -4697.993643087259 102 60 38
2769.7666239208042 -3804.2548018689754 -4975.803055811505 79 62 42
543.1753484536928 -4030.8781031244116 -4508.604782595822 74 48 31
1645.8636338276954 -5044.287585747664 -4956.4794180846975 47 26 9
2037.3181555988579 -4390.498735363 -4884.22583397116 139 122 102
-545.5958775440179 -4619.966327315442 -4643.215432929021 60 37 19
-584.3236411456213 -4572.197689199391 -4627.418832237377 73 48 28
-101.1262566161963 -4011.3850592161043 -4448.5047464946065 128 107 86
1073.5681223981821 -3714.8605166234356 -4485.215863369046 86 63 45
641.3758101303464 -4064.9296785808697 -4531.578682436163 131 108 90
-1115.6823195192123 -4366.424272751175 -4577.425257786834 66 44 30
-325.0721640087116 -2955.266806814821 -3983.4915884304396 119 98 77
-649.8942117485437 -3431.229930119096 -4215.984206245054 131 113 93
-457.70097035761 -3385.713911114535 -4190.274896849296 133 113 89
-1073.8480363800827 -3905.9206938153384 -4423.320277046797 189 168 149
-416.90684854770103 -4546.699471992319 -4622.370403130759 144 123 104
-250.08493378187976 -3446.2851577838073 -4219.613515286376 48 29 15
1513.771899500819 -4184.666707843906 -4717.709053999587 122 100 76
1317.6117282906434 -4738.347628151875 -4829.827043992542 76 56 32
-95.11349424034633 -3646.1429066350343 -4307.55580437695 91 69 46
274.8592425853445 -4003.8910625994654 -4469.642120696178 146 125 106
-19.654952766425193 -3373.3428290994807 -4196.153864176082 171 150 133
-2226.920048655987 -3970.339915008696 -4558.758961056191 144 122 98
-817.2076330030203 -3941.5954708020536 -4423.316884998608 142 122 98
-1681.6341174044244 -4910.720285185172 -4757.045543442408 124 102 79
1852.2214074966766 -4010.7508038925407 -4750.77273889657 35 22 13
2811.8933451502585 -2643.354732980186 -4824.75164814405 162 113 73
342.57998572601366 -3172.519042779437 -4140.623444487238 60 41 26
-861.0373541620388 -4498.917249599355 -4610.304840367635 69 47 36
1252.5111375245604 -4175.506474964947 -4664.127523078004 57 34 18
2354.1179215670218 -4068.898392353934 -4898.187388661016 148 129 112
-518.3856530685994 -2904.4705847880377 -3960.2187708184915 50 31 16
-329.730931459728 -3218.6138292681467 -4115.069054134791 131 112 97
-591.9413071597888 -4282.847417888974 -4536.297063248891 73 55 43
175.76324811953845 -2949.3328835209827 -4011.133177922711 146 125 104
1077.9639162806986 -3959.178821589951 -4565.485137855986 132 108 84
-1491.4474904877047 -3873.7474670014467 -4448.033524003858 60 38 25
870.3894446435808 -3466.141700459172 -4355.7002433012685 143 123 99
1522.217737448315 -4830.256511192824 -4885.217668426878 46 25 8
2814.7321251805183 -3972.831642585913 -5013.724070326377 74 53 36
2326.268543298759 -4164.942662397172 -4908.730749655689 161 141 117
-423.6105502573884 -3841.5769559182563 -4378.734785491656 38 16 5
-121.33123305958726 -4849.749321771369 -4720.041064955319 61 43 29
489.5084778463418 -2601.453400535544 -3884.753904243082 120 112 93
239.39714288946922 -4358.267168977717 -4589.022240194975 75 50 30
-2434.197644138824 -4423.887938864054 -4693.285080499732 51 28 12
-1308.9389661924395 -3773.316536215956 -4396.029721574552 38 16 3
2827.419699278807 -4635.654745821465 -5120.2718968724 118 94 68
2048.779371848537 -4171.320867436112 -4838.841452387354 70 51 34
-1928.1049809043482 -4052.3230947908737 -4547.432767011682 144 123 106
-465.1598188751723 -4449.601722297323 -4590.919144275424 67 44 26
743.3477208070631 -3615.8757704588716 -4387.113205013401 141 119 96
-1724.831991502385 -3013.082347140154 -4176.27507963408 83 58 36
-2725.4672771064797 -4580.5054339089365 -4756.559841544923 131 108 76
512.8758589594387 -3756.7307571635465 -4405.513713749287 140 119 98
328.7738895958891 -3433.1489053510786 -4252.816935995111 135 112 96
-2145.6195671373066 -4022.2756371899814 -4563.499883232723 71 50 31
2246.4808057494793 -4009.0771303261777 -4855.978778109131 144 123 106
-3183.535213339278 -3791.589829412701 -4641.629407511496 141 120 93
1649.6002927087757 -5151.841007261273 -4982.184471551378 127 107 82
-1464.0090920513778 -3227.1855755104184 -4215.0265226925785 47 29 17
1281.1273153025925 -4353.133797891732 -4719.6031974995285 80 59 42
-507.406363449475 -3328.184720444006 -4165.539377792488 35 18 8
1137.1160960511843 -3618.804398010211 -4467.755392146037 141 119 96
-591.9413071597888 -4282.847417888974 -4536.297063248891 73 55 43
2346.2271786252113 -4285.582784165563 -4937.378092797059 141 119 96
-587.0484269580056 -3023.8108949856824 -4025.3826068737717 132 110 89
-937.500168866039 -3247.691596100421 -4156.553453374755 62 41 22
403.75281331732873 -3105.3999579366564 -4117.706585529879 54 37 19
2024.1842952548045 -2504.2200267548897 -4432.7798742401155 99 54 21
-210.63138308931866 -3982.706485016437 -4433.971301831451 69 50 33
-677.2073828212209 -3945.1050892552466 -4419.156680990223 153 132 105
-99.26647843095184 -3472.181117950562 -4234.498036690669 61 39 18
194.8274523669004 -4797.709681893507 -4721.058427553394 131 110 89
113.19302701316454 -3655.1758142129725 -4324.310326801107 136 115 96
1763.6009911419612 -3216.7300205087217 -4525.1563755677835 72 50 29
-1177.6431543238975 -2993.6819761881043 -4072.9606667825446 85 60 38
-1201.1047819804187 -3388.4822670545686 -4242.202352783751 140 119 100
178.4955970685276 -3699.567636714888 -4347.7779407427 130 108 85
1821.3840289716677 -4118.820938483285 -4770.047190798048 126 104 81
1503.050879392297 -3514.051395419114 -4526.199522316644 151 132 115
2079.3387323512857 -3334.813933131462 -4662.962267032825 134 117 99
-1617.2892564054907 -3366.3787762768825 -4288.033408272449 47 25 11
2864.0503103669685 -4032.7827798093604 -5036.924024833648 134 116 92
-1887.284647951364 -4315.115440671398 -4616.379362284645 64 43 24
-2374.313457743338 -4093.8339719939972 -4608.964399302811 129 105 81
1141.7978824307472 -3995.5028068292804 -4588.738834406057 44 26 12
873.6137069689405 -4328.954848556738 -4647.400339603773 145 125 100
-946.4595770650994 -4530.502918018841 -4622.157950874844 114 93 74
1733.898087522985 -4542.539631687324 -4854.999442994338 152 130 106
818.9611236642114 -3222.4691488949607 -4250.2329570179145 59 36 18
490.8983388219351 -3237.08614204419 -4191.784673555499 67 46 27
3176.4560796830933 -4456.024049942232 -5182.999693941247 40 22 8
-18.627789200820853 -3201.561104975177 -4116.695079627983 81 58 40
1151.2624464716873 -4179.355153930242 -4645.975900412752 42 26 11
184.15393682322346 -4856.724627117759 -4738.709921724791 137 116 95
-1153.926895455515 -4006.9431624361982 -4464.63170729166 134 110 86
-81.67585247650744 -4747.195047200928 -4692.319481041563 61 41 30
1877.8173771879233 -3017.164746349504 -4514.179279038175 121 106 85
513.166867552055 -3822.4983550027086 -4429.55723526319 73 51 37
-603.9744277423766 -3697.338564395103 -4324.776408575379 167 146 129
3208.028495834625 -4204.338859062916 -5159.806645691418 129 111 91
-129.62711955651125 -3492.86447985608 -4242.719167546401 162 140 116
367.8749454604878 -3816.5045961532614 -4409.369093641497 52 34 22
3215.794674320546 -3641.4957314063977 -5102.592800810143 59 39 15
1564.5299666116568 -4341.548576600164 -4770.203972066373 159 138 109
-582.68074292254 -3164.167367256021 -4092.27723670825 129 108 87
-253.72579429712323 -3012.931952988793 -4014.4291820891403 56 34 13
-1930.7654868205452 -4649.181958494114 -4706.659003239005 25 16 11
1481.5828106760953 -4597.004425122549 -4819.191641486333 126 103 69
2108.183708485633 -3651.242509796343 -4738.842898001197 135 114 95
2541.4991113155993 -4270.326275765511 -4984.905811464 151 130 103
34.76465029869684 -3371.8334473608693 -4198.048363724639 140 123 95
2883.737657773127 -3350.2047478534796 -4959.95133877383 71 53 33
2268.320141559199 -3681.517663514523 -4795.497536101394 123 103 79
-1043.6760127476045 -4483.747135006021 -4609.591724436379 123 102 81
-1041.5126979478373 -3700.7762825836317 -4346.873049046811 67 43 19
-1656.9881783016078 -3833.472989667658 -4451.681094459941 116 95 66
-372.12390128129 -3685.913776768199 -4316.761779457751 118 97 78
-814.7648175836327 -3073.4057211330173 -4065.6875895212124 64 41 25
441.53924727146426 -3800.2796352356245 -4412.466360572507 117 96 77
-1030.9178518802935 -4044.202889467212 -4469.2400243851 48 30 18
-461.5373787244033 -4372.13648411826 -4564.5876846812225 118 95 77
2714.779010907509 -4536.574415319903 -5075.885811738527 36 17 3
-2800.7574037426084 -4613.146785527671 -4769.408745246687 67 47 22
-1220.0557700241723 -4130.829575288021 -4508.483107336748 70 52 32
2982.1546240640655 -2842.4666894073735 -4924.075311424328 25 12 6
-2352.7883235756885 -3182.4236718652255 -4357.895755053621 144 118 91
-61.31276597868202 -3375.4598077168107 -4194.070074340507 72 49 31
2301.531715986008 -3307.835463804815 -4736.270922728701 119 102 86
801.1187578495036 -3991.8957663473457 -4529.410071648326 76 53 37
-338.84102624479624 -2736.2122771374975 -3864.567118334193 115 99 83
-1441.951898400865 -2912.6102319895826 -4079.7112668573004 95 77 57
-2265.5853927552075 -3542.9516846965657 -4447.4561684637065 137 117 93
-1601.835831797675 -4003.956716732454 -4499.639807619571 33 20 11
-1648.3054282459266 -4457.141357833832 -4636.485399206849 126 106 82
1517.7549431249618 -3297.6448927634156 -4466.482115228565 153 132 115
2086.380109052443 -3599.85427558667 -4721.326765181866 140 122 100
116.29247018796634 -4494.463364531103 -4623.654081353891 63 40 26
2626.309522417782 -4301.723816908585 -5013.3563845333465 141 119 95
-165.04536367494336 -2893.509157735475 -3955.0085105763246 157 131 114
-103.88066773331973 -3215.5799545974296 -4118.450678009761 137 115 94
-2073.873382514714 -4043.1150506051486 -4560.435786462066 118 96 82
1183.4160173514063 -4257.301307233818 -4674.420062245497 135 114 93
686.0768042827556 -3279.822795456147 -4245.034578710191 67 41 26
-2151.9410596083258 -3450.6107482348466 -4402.323065333684 52 34 12
-211.36029896707439 -4547.170933910817 -4626.825486914995 59 37 23
-613.8283767880487 -3033.2315421588933 -4031.3701653772287 93 68 46
515.1777989571332 -2874.754298403881 -4030.385863159579 121 103 89
-1892.2039383777665 -3624.958696811047 -4415.525814165353 60 37 19
3228.7539737840925 -4203.175289460523 -5164.898483096173 68 47 28
2244.836621771352 -4386.712891307953 -4932.999811706439 61 39 25
215.65379671480292 -3099.7245872293984 -4090.055914917468 157 132 110
2898.380536705603 -3561.343327027985 -4986.816163805886 133 115 95
-2827.2391658890774 -3431.8446751050437 -4508.552484515271 122 98 74
-1919.3828053704358 -3079.5710130591947 -4239.748076783872 136 112 88
-1704.501246871611 -3971.0695698862983 -4500.317687979695 131 109 86
2745.932786014191 -4009.6839640168123 -4999.990953587808 147 131 108
-1779.364297364078 -4550.1090491371915 -4671.782922470794 36 23 15
891.0028862662043 -3925.725526636764 -4522.074486480629 159 139 115
-549.5493843289535 -3033.023968067383 -4028.539008431003 42 24 10
-261.92721954771105 -3710.8200349428703 -4327.855581954466 66 40 23
1089.8744657104507 -3712.842765518932 -4487.7912377307985 155 135 111
-2080.8430649070488 -3878.4729034235415 -4515.8111185133275 66 44 23
-990.5661044775175 -3617.215654654715 -4312.051506230136 136 111 89
-527.2106504913971 -3169.141056183286 -4093.9625199970837 117 95 72
-784.2478426077613 -4475.4728767110655 -4601.576153318819 158 132 107
951.9749692182912 -3277.375723884881 -4302.870362822787 89 72 52
-2712.6575844544814 -3419.1970360979085 -4486.581924613276 85 60 38
-5.952997882395275 -3526.4543637833267 -4262.871905458427 131 111 86
-1040.720859095706 -3079.519662562554 -4092.423954791229 162 140 116
3014.889776875775 -4202.921110040482 -5105.432487419473 86 64 41
-1114.1563713632581 -3895.404932318523 -4423.587740734015 86 63 47
864.0516338798202 -3408.8367462048986 -4332.49205882294 82 59 43
-2229.9375610034076 -4098.9387157582605 -4591.994590504806 59 37 16
408.1683033386363 -3496.129333259773 -4290.472431439914 149 127 104
-2752.9796008776025 -4047.5894952475674 -4643.577315113319 129 105 79
664.4088100351494 -3166.420258593944 -4194.383096399763 24 13 7
-1238.5741316050687 -4054.7525904580602 -4486.343637513268 150 132 110
-1548.286673111039 -3652.7887220340485 -4380.2385672097325 73 51 28
-844.094521463125 -4074.331829645086 -4470.644074445422 86 60 45
1728.2702960389227 -4478.35223858339 -4837.686984216388 103 84 69
-1228.5161245625645 -3652.2381179583463 -4345.247639539927 123 101 78
-2070.1082155342915 -3267.825668311893 -4330.891184885009 57 36 17
1904.4519263876657 -3621.5782401348106 -4672.816284710287 144 125 108
1320.3381899225824 -4633.350435593113 -4803.127610122161 133 112 85
194.8274523669004 -4797.709681893507 -4721.058427553394 131 110 89
2238.6787668998845 -4090.383665845251 -4870.510221415012 77 56 39
-148.3235658603608 -3462.052931003073 -4228.356372240965 148 125 107
-62.979515435138346 -3142.204223921975 -4085.574129712178 132 107 85
-2164.4906707512814 -3245.8772318437123 -4342.268958136053 130 106 80
-1797.7065633371087 -3348.1195937519137 -4310.780887077211 138 117 90
-852.3637217929104 -4097.097283167966 -4478.954132425358 136 114 90
432.3874083001437 -4660.065289346069 -4698.516489768069 125 105 81
1001.9367408882698 -3499.772905027091 -4395.207130806472 77 51 34
128.50166109320494 -3403.0171444736625 -4218.817930022755 139 119 95
1925.7614794723925 -4390.475262135362 -4858.206616720561 71 53 33
-2685.990903727057 -3415.1293886611256 -4481.685979549207 147 125 102
-2539.203105963105 -4513.430910230258 -4724.337015908402 40 20 9
2010.4030635555473 -3349.4371564398643 -4642.6871831821845 36 22 9
843.6835310493831 -3331.8280312335705 -4299.773140761072 110 87 71
207.74460975498744 -3538.538977276235 -4285.67750435178 151 131 106
408.6581499124936 -3069.156171084485 -4103.329302829502 102 85 69
-2075.2722327301794 -4106.188905058805 -4578.491632573713 138 118 94
2490.924602884244 -2857.7149391418466 -4721.955311528877 109 74 54
1014.4237348423629 -3317.0792777309453 -4332.606034928069 69 46 30
-1611.6670910993857 -4181.33830950834 -4553.549636511973 69 47 33
127.32419968179728 -4357.807664996733 -4581.225011076033 37 20 12
2181.8632901115166 -3400.574336180432 -4711.230046772329 54 37 21
3094.164916266157 -3620.8016218619373 -5060.155535736193 78 57 36
2170.4613129094755 -3880.847487302434 -4807.20453506902 71 49 26
1623.8258206785156 -3739.662847179397 -4623.063470551585 60 41 24
-418.91491594142633 -3344.1723030170583 -4171.6876654110265 32 20 4
647.674847732329 -4579.42742283884 -4696.1537556865 145 120 90
-2014.7412655404107 -3106.097763970818 -4267.287096243903 158 134 108
-1242.9248025635638 -3802.0720290831205 -4401.062951779184 66 39 20
-2106.6853333421727 -4213.112803208917 -4609.268652198949 137 113 89
-1243.8419002136545 -4466.151022628573 -4614.435106551677 139 118 91
-2575.048776133643 -4081.9928409462914 -4628.8866607915725 33 19 6
174.53951536915793 -2835.5894063438673 -3952.4898862570635 77 55 34
-439.6959190069393 -3836.4169791412096 -4375.992875027531 111 88 70
3218.3652352245986 -3566.2194867160647 -5097.858638868915 149 128 107
1246.6162785178576 -3899.018567973959 -4579.256678105458 129 108 91
795.7063493856859 -3325.243809867695 -4286.232711984446 120 97 79
-4.730600951144883 -3752.496422086846 -4354.757099610685 64 42 28
-130.7977593616882 -3920.5672576784677 -4413.136692839044 71 48 30
-236.88961702941273 -3432.410727604333 -4212.7265302872 105 84 67
2735.7669919347577 -4320.41681213362 -5046.186649513644 82 60 36
-98.27221763232382 -4709.113638448756 -4679.109910859059 130 109 90
-1211.1537992192225 -3345.5172282954945 -4225.403213032274 70 49 32
-2311.096470239683 -4173.639341922673 -4622.100203213422 117 95 71
-3039.544366384327 -4535.434546570263 -4775.169696526487 63 44 27
763.4715081741743 -3610.6702037136774 -4389.011733152964 79 57 43
99.26231151950661 -3362.430875408005 -4199.397646456379 61 40 23
2723.424259240763 -4506.563106293951 -5071.971501059475 91 70 51
-1516.3163841577634 -3125.545708071857 -4182.012213419626 50 28 15
-961.0962130143445 -3997.7112191181227 -4450.58946173819 82 55 38
2195.585912721873 -2678.3079437076544 -4561.50319091009 44 10 0
2702.532105526932 -3980.0576300341972 -4982.844915688727 145 127 107
3127.6713906487166 -3520.168548646434 -5061.967246967192 47 30 12
2449.048319295008 -3876.2729934170616 -4887.146580459356 133 112 91
1912.1562737290462 -4597.909224630457 -4903.377854795224 67 45 31
-377.1434057410701 -2940.073738566628 -3977.4009016784166 55 34 17
-990.5661044775175 -3617.215654654715 -4312.051506230136 136 111 89
916.1151921899726 -3955.4417816346327 -4535.944469667838 134 112 89
-2168.692175975921 -3304.545713921885 -4360.833457278997 80 55 33
-1283.7605826150495 -3932.956350775103 -4449.711280684147 133 111 88
3429.817646703032 -3574.5546057900374 -5171.823475433292 146 126 101
500.1928364535158 -3267.170955519189 -4207.487156402396 130 111 96
-740.0685972399256 -3197.107475452144 -4117.577407989099 67 39 18
-65.0853509291231 -3344.4818664506533 -4180.414819138425 144 121 103
2402.676203913296 -3186.6997372598917 -4754.8588868094175 120 103 85
784.1781637980291 -3268.905060745721 -4261.269869690875 122 100 77
-1401.422949676125 -3233.1512225761758 -4209.090006719955 40 22 12
2972.6193764497107 -3629.866873880422 -5021.498738596449 59 37 23
1001.9367408882698 -3499.772905027091 -4395.207130806472 77 51 34
-760.7439117502668 -4440.026790727419 -4589.653634370065 137 115 92
1630.3738726420445 -3579.507436987794 -4580.926648844205 66 43 25
-435.0097996695554 -3316.6346973952172 -4159.604123984671 73 52 31
-479.84562440844263 -3435.550890654941 -4214.530012174714 61 42 27
1083.168527462553 -4377.547578865361 -4693.409471900844 154 133 106
539.4772535465186 -4375.500626934108 -4621.47412263771 55 37 25
2661.9974465759105 -2740.332014420493 -4771.7211729073 125 85 59
-1946.952145665121 -4050.966462122093 -4549.457312980976 138 115 97
-345.59680516313006 -4768.488362973598 -4690.447710198878 76 57 42
1306.7577242877464 -4864.440936927746 -4858.9629481784295 152 131 112
342.57998572601366 -3172.519042779437 -4140.623444487238 60 41 26
-1017.0826087972446 -3219.6070313303485 -4151.937394873271 61 33 21
-178.35674110191835 -4591.628067692387 -4641.56484729066 92 71 50
1388.3156117992266 -3461.5460456214164 -4478.289583212926 80 57 41
3214.952680862949 -4106.005367153097 -5149.755912397443 133 116 98
2674.83252864629 -2748.800540449738 -4779.333858624863 74 28 2
2201.9281720023623 -3878.911883399924 -4816.1534083466095 78 56 33
-37.04315465987217 -4197.5826403079645 -4516.827899209111 45 24 7
699.0462821053356 -3674.374447454765 -4401.6555234664465 76 54 31
698.8819889438068 -3329.666825368538 -4268.787172111691 129 108 91
796.4522444330986 -4167.9510474355375 -4585.670116417232 129 107 84
3181.5145536544696 -3516.906385048403 -5080.80553590604 141 123 99
-400.2206242696437 -3404.588151078269 -4198.81399933683 51 33 19
202.86500681449388 -4605.30242950437 -4664.4735739151565 51 33 23
1957.6255393586005 -3894.681008008781 -4751.880924537255 120 101 84
674.9081580891519 -4031.6126605400714 -4524.483835329039 132 111 92
1052.5419021186678 -4361.263909942156 -4684.912694801574 140 118 94
-1831.1947589272222 -3735.343863723055 -4441.848825167537 58 36 25
-693.2648452067473 -4340.863369120756 -4557.343214829251 85 63 39
2203.5628170578098 -5019.10874877416 -5052.988415350677 89 67 46
560.2366771173624 -3292.4671215419053 -4227.684468748779 139 117 96
-1216.434332232912 -3540.5588662226087 -4302.173268078134 135 112 94
2339.8165757587167 -3864.6039726258173 -4852.12703833264 141 120 99
3275.011594526665 -3807.9032645913912 -5138.258245382939 88 67 46
200.88485666089056 -3331.6800920435758 -4195.642005711485 71 50 31
3268.6403927317892 -3727.926846449951 -5128.52372483886 138 116 93
675.8911411669834 -4770.013621180952 -4753.457757953331 64 43 22
-643.5206147686038 -3204.0311950968585 -4114.642525761625 104 77 56
-688.8031901736603 -4551.036237880506 -4622.896283351077 28 16 4
-212.24204794852582 -4222.310392754556 -4518.962964241683 58 38 27
-1258.1597499546785 -3166.680692971204 -4158.319365077259 45 23 9
-729.3731204689182 -4955.773865627076 -4740.705817094748 128 109 76
3059.5244601470627 -3589.6653277822907 -5046.118249572833 164 145 128
145.88452533490536 -3997.1592337637844 -4457.0911683446275 64 43 26
652.9583621873819 -3563.5091314562133 -4352.899851959825 154 134 109
2397.3819506240084 -1992.2533597527706 -4563.793020909432 113 68 37
-1868.462956734161 -3795.6831142016476 -4463.966292422864 140 118 94
-714.3002403500715 -3619.5040032401766 -4297.044836023945 142 120 99
2363.0180996163667 -4695.6284371144375 -5019.274586693249 109 86 68
-1617.2892564054907 -3366.3787762768825 -4288.033408272449 47 25 11
-275.43364416757686 -3666.311438843889 -4309.723547665546 63 41 27
852.9773748784658 -4364.57798414174 -4656.395519681261 61 33 19
1577.2102875266614 -4403.783228873105 -4787.984444185589 66 45 28
-2772.8245561453577 -3723.6003295699393 -4570.4560949367215 50 32 18
-2811.3855910171314 -4073.170713250988 -4655.709246172456 95 73 49
2283.935258900367 -3433.147648614874 -4754.234895526632 76 55 36
-2061.6778873746734 -4279.912247645637 -4623.098182872123 62 40 19
-1409.3278146456464 -3362.407543706867 -4258.716163473011 164 138 113
2566.992843634982 -3995.9404528714294 -4945.14099476152 62 40 17
3188.614730447339 -3579.333859509917 -5089.360865927791 139 119 95
1124.6915006790045 -4405.060008703992 -4709.856673703067 62 40 17
-213.12881035296041 -3212.113851605627 -4112.668220017334 152 129 111
-125.58610792398831 -4316.520014278195 -4554.7960883499 142 120 97
-560.1052310890367 -3890.4757779859215 -4397.8067392255525 70 47 31
-2820.354627302525 -4263.804696217907 -4697.037537121782 108 88 64
2464.6039643720137 -3782.7576392531137 -4874.767676888969 78 60 40
58.30766044801947 -3390.061126190011 -4208.548324526086 120 99 78
140.03679063840536 -3406.9569794996983 -4222.252740008282 151 130 111
1558.1678994584086 -5466.652726819555 -5038.34332818643 96 75 54
53.25239562344778 -3821.996661480952 -4385.331949904234 66 47 30
-783.0772246134978 -3975.9030100589525 -4433.478496362053 153 128 106
1093.8366564092914 -4674.822289597391 -4779.670178988155 130 109 88
-674.5036237132557 -3400.3979281991587 -4204.202608970109 127 101 84
-821.3011480276932 -4483.719475181123 -4604.989827536723 43 23 12
630.9875918245505 -3549.3918957153437 -4343.058490334864 73 51 27
822.2172374180476 -3831.454489049269 -4478.418163769228 62 40 26
-863.5049172503603 -3990.9586410216893 -4441.716690461403 31 13 1
1003.8697748815441 -4351.386799018533 -4674.050137664528 81 55 38
1224.057800742035 -3394.388261419057 -4413.635270983628 58 36 22
2713.273179296313 -3018.582841512974 -4836.994723457531 57 20 2
140.03679063840536 -3406.9569794996983 -4222.252740008282 151 130 111
-2679.639308011991 -4435.169364313707 -4720.228624616865 148 127 108
-1368.1731625052653 -3627.293519089498 -4351.124023530723 142 118 94
172.04540387674857 -3950.9595086735444 -4443.160765635133 135 115 91
-1393.2981348092414 -2991.205229349549 -4106.7691210659605 75 53 29
221.79396889336533 -4353.265239517531 -4585.725086070855 82 56 39
2573.4945988664567 -2059.485645623207 -4663.640844536059 51 13 4
3358.1487952090947 -3662.280340412388 -5156.166313229227 59 38 19
2445.271608782943 -2671.2498700818123 -4670.514851170574 87 34 3
87.79363066380587 -4606.953207517258 -4657.499902888395 61 40 21
272.14865701483734 -3824.930189222043 -4403.478771780085 102 81 60
-905.973113433809 -4303.327216400867 -4549.640724720214 139 117 94
-424.54478354437174 -2954.8181561925944 -3984.075886024102 121 99 78
-988.3960086046899 -4774.457864654742 -4693.41535122049 33 18 11
1403.9165852312633 -4122.537589720037 -4679.137757035067 120 98 77
1697.935732464667 -4106.157067878367 -4738.266237704467 127 107 83
686.0768042827556 -3279.822795456147 -4245.034578710191 67 41 26
2495.7773542117407 -4831.381920548912 -5077.405971722807 120 97 81
-888.711398269659 -2808.796740738496 -3943.4194449058286 127 110 92
786.4391204795154 -4155.263104320464 -4580.303339953782 86 60 43
-2573.198278236898 -3625.4754641399772 -4515.34763811022 88 60 36
1842.1133219373748 -3321.4061700521465 -4577.612215680054 62 43 28
2041.642347754268 -4833.97227576409 -4980.952419428827 140 116 90
-1090.8027252792838 -4434.985856409567 -4598.211561084234 92 69 51
2716.2176765988843 -3162.2663517317837 -4867.796397033339 82 50 29
1221.995899301141 -3012.915070780278 -4267.357663722904 108 76 53
732.816721128968 -4279.033524658058 -4613.195935304537 46 19 8
2443.6712157136035 -3954.664778031978 -4900.60561087673 67 46 25
160.0094215725755 -3528.719943050083 -4276.074993508757 41 22 8
2548.097650858461 -3828.0154200504103 -4909.728658168436 54 38 25
-316.1378303847352 -2942.2753561429245 -3977.035736609931 61 40 19
-2665.247544144872 -4403.425391728861 -4710.524616931064 51 35 19
-1199.3855519190429 -4009.477321071313 -4468.286673469918 138 111 90
566.1222429030182 -4016.326139246649 -4505.6948534075955 147 125 101
-1885.9121008468258 -4268.090655601639 -4604.674908978205 129 107 83
2702.532105526932 -3980.0576300341972 -4982.844915688727 145 127 107
2373.176497980518 -4958.827792237888 -5074.561980517628 74 51 35
-1853.4246110740125 -4045.0548938588167 -4536.928645235988 104 85 68
-135.35032385603105 -3359.6483055798058 -4184.043172708973 130 105 83
-838.8138159944326 -4231.277383106119 -4523.264061034401 62 39 21
-734.1033303154238 -3650.928688220943 -4310.174409476857 40 19 2
855.5719369978352 -3972.3388206879968 -4531.053589863443 78 55 37
176.05118005618465 -4095.4040537188284 -4493.9475527705135 34 16 6
-549.4427228783554 -3469.2711809709117 -4228.66206606691 54 35 20
2367.659666876384 -5356.512896514097 -5148.782925054356 54 35 20
-845.4997302671163 -3544.562950189146 -4273.28254625681 55 32 18
2737.8914080500267 -4766.343581643464 -5119.68036741354 141 124 96
-982.583496483595 -3986.0758184870747 -4446.980146571838 152 133 116
1729.1817426924117 -4714.037114631595 -4893.208248414144 47 25 12
-274.42035213571427 -3233.9396467849165 -4121.244231879814 56 35 18
-580.0533943975079 -4648.930408336663 -4652.374639647506 71 49 26
-537.1758932565119 -2886.2371898578517 -3952.7427961430412 130 105 83
-2294.4038245797733 -3063.983038288858 -4309.81688108867 156 142 131
3229.415796466485 -3827.3712519379737 -5126.66665938118 126 107 90
2155.397684965933 -3806.3270815862866 -4788.242410641421 54 35 18
-30.040876404770877 -4003.55475924586 -4449.383796723364 114 95 78
-785.6547165371104 -3646.839493146866 -4310.764269899813 137 115 94
-198.45604487849303 -3954.839190074787 -4424.165863131477 168 148 124
-1283.3974352720113 -4823.978143083537 -4715.901951679056 62 40 26
2628.7936857655322 -5071.788865308589 -5147.66115081781 139 118 97
711.7827934234168 -3310.5548006380295 -4263.569818491119 82 60 46
1049.3152714058936 -2469.0618805794884 -3988.9203445962125 102 62 37
-77.37182649345631 -2865.9012645264556 -3945.3085634517424 142 117 95
-2695.6664100891967 -4775.538113149355 -4795.00997520814 45 27 13
-1019.5821558022134 -3569.171808122546 -4296.709897420083 137 115 92
-580.5640307079377 -4344.138215769867 -4556.877683538083 152 136 110
1219.2282221208159 -4259.0786817620765 -4681.997272853006 127 106 89
1762.2100385194897 -4168.333159265162 -4768.559935866306 143 125 105
-238.50926617813573 -4006.037121719714 -4442.921043523237 128 106 82
2663.6672707280904 -4715.105304812915 -5093.676360657794 134 115 83
-546.0065297273622 -3382.5217897053585 -4191.034942026211 128 106 85
-1374.0365759806955 -3488.127913154711 -4301.442100694358 79 56 38
-1270.6733546118435 -4203.031292134751 -4537.013420699362 57 39 25
2500.6851493205936 -4615.437720918145 -5037.49106489372 45 22 8
1497.3011888753754 -4189.78308711893 -4715.112053119466 43 20 4
2785.9509815016695 -3598.827699325186 -4953.175289307248 129 110 95
-1087.8017375302586 -2936.5595623709887 -4031.690894564167 138 112 87
-270.48693283589307 -4073.1692464442776 -4464.848246370056 60 41 26
-212.24204794852582 -4222.310392754556 -4518.962964241683 58 38 27
309.8878736158554 -4388.193017066528 -4603.551144934703 114 93 74
920.0053662365877 -4406.463577243094 -4678.073465063831 96 75 54
-921.4777666779627 -4330.0695540863835 -4558.796194641312 61 38 20
-1446.5347027772598 -4327.442189494732 -4584.766951257324 58 39 25
-233.06195082962324 -5074.198216081027 -4781.110042392909 137 116 95
109.58437675151104 -4114.721052864474 -4497.31591053077 74 53 32
1522.217737448315 -4830.256511192824 -4885.217668426878 46 25 8
2373.9653638267996 -4780.804155727431 -5039.739429651021 51 32 18
1024.9061194280353 -4369.907730267434 -4681.9424805678045 134 112 91
-13.19166597144702 -3928.304999860709 -4421.437942357922 146 124 110
2952.482010205772 -2877.923978714823 -4914.415078800255 133 93 68
1769.2534195373464 -3816.310675396221 -4680.987638976467 105 86 69
2474.9179918265336 -2620.8836205466514 -4676.660862990903 131 80 49
2666.374882326761 -3468.69248502007 -4893.20736814294 85 64 47
-810.0526572117601 -3149.785738624379 -4099.932832573233 159 133 108
2346.7054732154684 -3936.330954665234 -4869.2323747985265 140 119 98
