ply
format ascii 1.0
element vertex 170
property float x
property float y
property float z
property uchar red
property uchar green
property uchar blue
end_header
-23.904680082277256 -22.214331673598817 -48.26862579286402 207 209 208
-25.62065553087842 -19.22194515917729 -50.9578161679726 125 127 124
0.5729855843737286 -12.380564531123852 -12.581281655138595 63 48 41
-13.788800312207146 11.176045802873528 36.04277964798885 48 47 43
-13.076086215897034 11.224509985099763 35.586711312871074 148 117 86
-23.480128807120174 -22.057526217998017 -46.865526293192936 184 186 185
-14.422215598522971 11.230193924269606 36.329301035852566 154 121 90
-10.943651035281604 15.403876122228535 38.34387985038075 221 221 219
-13.076086215897034 11.224509985099763 35.586711312871074 148 117 86
-12.77155465793885 15.005937772492466 37.52242678109467 60 42 28
-25.62065553087842 -19.22194515917729 -50.9578161679726 125 127 124
-13.788800312207146 11.176045802873528 36.04277964798885 48 47 43
1.6344272706183578 -11.082383278411365 -10.239369331267914 172 142 116
-12.175067693502168 7.172709101872024 32.86483158133163 128 114 111
0.5765705164825611 -12.554572410162008 -12.93679988966516 151 116 88
-25.570692132154797 -19.0074833839999 -50.58080293045453 204 209 205
-13.946668185283862 11.301615095147518 36.00838154582573 142 128 117
-10.566696297992747 7.524043964778105 32.041338438994984 62 47 50
15.385134294581686 -35.61197854239755 -96.59477324494244 60 62 61
-15.054926655806184 12.224098799838485 37.48992886971296 43 41 42
-12.45090704255321 10.668447597784883 34.94750785711529 146 111 81
6.437325994823101 -15.431525281309382 -25.088858177490483 191 208 228
-23.408589390894978 -20.14423426293746 -44.185301700172104 163 163 153
-14.470623664082222 11.980542336033253 36.78436590939202 47 46 42
-13.292478921267673 7.592964385447032 33.781328837248815 59 39 41
-13.946668185283862 11.301615095147518 36.00838154582573 142 128 117
-12.801618148619651 7.395926756362291 33.259174607554286 168 157 151
-13.73702181736208 11.356177449813465 36.048015202095556 138 112 89
-15.332998221532012 12.061738594215383 37.31384353212108 161 139 118
-10.563029553267075 7.708382146227482 32.06778402559348 58 49 50
-10.776497712853413 8.90780206475977 32.90236107101222 146 135 133
-14.059829157539655 11.737195068543578 36.481272861984515 45 43 44
-13.371714935040101 7.457141357500681 33.66661046623217 139 107 108
0.653554206086384 -12.785341000721896 -13.346604046722149 143 106 77
-13.504389628886672 11.000143292334325 35.84424426488501 152 121 92
-10.869872332547974 9.895981041728003 33.3368371683806 58 44 41
-11.317760777532637 9.962401218711852 33.66849825902435 50 37 31
-12.739244129608371 7.3343871584830955 33.46816103207122 60 45 50
1.8369307126125725 -12.705574364236293 -13.229214010202977 144 116 95
-13.73702181736208 11.356177449813465 36.048015202095556 138 112 89
-0.6569913368110188 -12.053969455095736 -11.99111316660313 137 103 76
-13.371714935040101 7.457141357500681 33.66661046623217 139 107 108
1.730898292368899 -11.200679112514598 -10.42537811022254 158 128 102
1.5930749227432062 -12.836655581208221 -13.451295145640175 147 113 86
-10.678053405961661 8.467339268947484 32.55508802738653 119 101 101
-7.373303632007326 -16.75767485295168 -20.710177379177136 202 197 191
-7.295098956606762 1.056148587491188 34.90410684030735 159 160 155
0.3719091471418563 -12.723781766127145 -13.191346212383868 156 125 97
-11.536366440814946 14.363862461483922 36.58182428407322 191 187 184
-10.505142301990029 7.398309007145386 31.878181200293113 135 124 118
-13.893202629321655 7.54635805657684 34.08200240128449 126 88 87
1.5930749227432062 -12.836655581208221 -13.451295145640175 147 113 86
-10.551625209791345 7.307539607336598 31.801270050534878 77 55 41
-10.764695798659561 9.429059282685891 32.96608790094064 144 129 122
-13.598680687452163 11.318950876950028 35.75618334175322 150 138 126
-10.477310704916516 7.162273419469618 31.76262369563043 63 52 56
-13.02575352406697 7.135633080904137 33.236078407650936 65 55 54
-12.497484400093311 7.1863469228843755 33.05976456879011 88 70 70
-10.836672010548574 9.67288072984048 33.188898545675826 69 51 49
-1.20964743179709 -12.547948063501448 -12.910840221324213 135 109 94
-12.055490797242836 10.61884646900672 34.4468142622934 53 52 50
6.42503071439659 -15.73357874602242 -25.27088411714627 21 82 147
-8.906784511616175 15.908788230800525 48.014924548374346 142 143 138
2.6245413759243634 -12.043810510968212 -12.038597361019386 141 114 97
-21.423875357856748 -37.08431421129414 -61.716617682362134 209 213 212
-13.607637938308457 11.600940968945682 35.941846820865095 166 136 112
3.748480336165872 -16.522077458750523 -20.243654642700516 129 98 78
-16.192175591063286 16.509495663715946 40.27720222123683 102 79 65
-14.539579350553902 11.926434662321336 36.721453795857656 47 38 31
-13.411808361928642 7.348109337932988 33.6411314886094 146 107 102
0.7471079782437248 -12.75232296953513 -13.281430764530317 158 124 97
-0.6314529375322757 -15.550770886513526 -18.459808903771705 131 111 100
2.1021457452693677 -14.632227574359652 -16.760632501125432 130 102 81
-8.332102847357035 3.9742779489978473 30.940267896660398 254 255 253
-2.958863378894553 -13.548219125437532 -14.706411087710691 149 126 110
-24.600173829268268 -19.185517875433884 -46.841349810869616 194 189 169
-4.985476012643718 -14.276318301014708 -16.02749321465634 145 131 120
-12.373794152781521 7.249084431956488 32.98298121236445 147 127 126
-12.183692039739809 7.045580439172542 32.65734952074194 99 86 80
-11.96603773376624 14.762491566815127 37.21189124723832 66 55 49
-12.507722052388571 7.315591201427674 33.11063097655477 134 114 113
-15.292836082608154 -24.79918342923298 -35.74012871741679 62 55 49
-24.58301807534976 -19.813544897941956 -46.85382887583785 105 104 100
3.6972780420228477 -16.409555993229457 -20.083744328921433 124 97 78
-8.865291399038995 15.478404706231197 46.54392543711099 158 159 154
1.3616453265822048 -13.08801106685623 -13.965118810101037 92 60 39
-11.550003036185997 13.248597860803494 35.69302206846575 175 145 117
-11.819433258209513 10.56344799782012 34.083002846206725 48 47 45
-12.163930973811956 7.1300056489942385 32.84262418347378 177 163 162
-12.183692039739809 7.045580439172542 32.65734952074194 99 86 80
-12.601581555237686 18.95004329696246 44.75472324785098 125 124 120
-23.12869854155961 -19.814246858197237 -43.36981892919568 160 154 140
6.4278141278447 -15.90149975786818 -19.15779402469138 182 167 148
-12.554595021500237 7.302597236456128 33.10365783372997 58 43 48
-23.425837628739625 -20.17218400779964 -44.44886376269557 191 188 171
-14.779516770869712 12.192218634782746 37.17064456291167 158 135 119
-10.777314691661903 8.960376185225952 32.80006031091206 103 82 65
-12.699332534993694 7.235918208475789 33.1508232950501 87 67 66
-12.162897409328078 7.126861476304075 32.742972639398005 96 82 81
-12.00493409409592 7.047128592498501 32.53168146825936 90 76 73
2.7735106124994586 -17.148242970644652 -21.545359624116646 87 70 60
-13.114937967385307 7.533118966961114 33.611925328228764 156 142 141
-10.790475549597742 9.278751919116013 33.03001447567219 118 108 107
-7.84591188101668 -15.906211022281239 -19.20987276528256 146 128 114
0.4539188969939862 -11.287742339478507 -10.547955793665777 180 161 146
-10.401291969978075 6.9706669183566765 31.484003162321414 118 108 109
-10.994807270281447 7.017619200445262 32.7627002492473 56 46 45
-12.914436032243266 7.269113227411874 33.26747305699514 55 41 40
-12.492285902727664 7.308955478995706 33.16899073155289 63 38 41
-69.2661135884247 90.4894976983864 173.38744114641355 132 109 93
-12.71419369051549 7.169798441538433 33.00015037388772 66 52 49
-24.087964998879283 -19.31514300184296 -45.28175620060116 165 167 166
-12.857630467663345 7.262150564532756 33.26048019355362 138 126 126
-12.163930973811956 7.1300056489942385 32.84262418347378 177 163 162
4.938379529902923 -16.203814904374806 -19.65549232003923 161 147 136
-12.743003604744693 7.242957476745959 33.140737805139715 144 128 128
-12.230349679620122 7.014225999289978 32.892218342135585 100 90 88
-14.260890990291522 11.434207313333621 36.07388909326048 47 42 39
-10.813594447872717 9.579702752569347 33.12572555790863 140 126 125
0.9249324839297345 -13.335671390216916 -14.339228399332205 143 111 88
-12.871457971174442 7.188386251875093 33.162954011977696 154 142 142
-10.550054582361698 7.021056016207937 31.88145605637627 63 53 52
-14.41559403813466 11.790295957093846 36.517477417223624 48 26 5
4.045440513874678 -16.404386160602165 -20.062523135331453 132 101 83
-14.5993117672827 11.30402462837353 36.49215292550156 39 20 14
-14.5993117672827 11.30402462837353 36.49215292550156 39 20 14
-0.5311761476307942 -15.549839156886788 -18.544403436135607 137 118 103
-12.438062790732024 -32.14680369620321 -49.34909416937102 144 136 133
4.972470019042521 -16.20678855624568 -19.667868434019127 68 51 43
-12.500116881579673 7.16619008723755 32.945729495605505 145 129 130
-12.493545212005792 7.263534551391582 33.324227624251435 61 45 48
-10.432660400799444 7.041580049128132 31.619182108726665 73 63 64
-10.671428920624729 9.093245101752155 32.640608980388265 115 102 96
-1.0504594836525811 -12.832997124407004 -13.401130480357194 78 57 40
-12.21827758374778 10.858393329426267 34.50209455875168 136 123 115
9.394252477062496 -21.059660293868564 -28.496759402714357 151 131 107
-24.25113307908781 -19.054560445811607 -46.15446838018898 147 140 121
-15.386945620642644 12.000867931867193 37.31976096909411 151 120 91
-23.92922692826876 -19.258000730889616 -45.08084016138356 230 232 231
-14.364581466249378 11.843350517861449 36.22555987914051 27 17 8
-11.991039261205131 6.988365454087813 32.444807257664415 162 149 143
-12.700828997243464 7.302727068955405 33.18692326768097 168 150 146
-11.528256985523967 10.25051436065059 34.25849912036799 66 55 51
-10.531733295449222 7.786553075342821 32.01497874996125 123 98 94
-13.201682337640635 7.2385470994253 33.40841293854632 55 41 41
-70.88286505585029 85.94977451512591 167.14948087415488 132 105 86
-12.310908336461111 7.26418305194622 33.11023594991384 168 155 149
-11.436960954375234 15.374684809542382 38.43918558066997 116 116 114
-12.543026442900393 7.136886997594707 32.9272436000463 80 64 64
-15.386945620642644 12.000867931867193 37.31976096909411 151 120 91
-14.93753464709991 12.271455822842137 37.396352466762764 43 32 28
1.1409512184484822 -15.350591611631387 -18.109546618016523 28 13 6
5.2743048873598966 -16.541488843567894 -20.23570990577879 73 58 53
-9.97928314388214 15.266194079030198 38.22499369856057 66 62 59
-118.64153762673358 159.4864400033296 301.1065498584635 128 106 92
-23.726261988759905 -19.28157834600555 -44.667475670599 137 141 140
-15.028079146651939 12.03927174237139 37.059042637921095 43 41 42
-12.289571253768749 7.0493521112855815 32.68964444923721 58 44 43
5.428393301049241 -16.903095863918416 -20.985943742787786 48 47 55
-13.085264769684057 7.15420953079577 33.19464019947866 118 108 109
-12.686584919717227 7.376674384223378 33.336095132777125 170 155 150
-12.388520634602111 7.126318275669312 32.886287711134244 124 104 106
-10.467764064678299 7.143639410644981 31.57089192868596 54 39 36
-23.888080525232176 -18.95483371901929 -44.83222690464792 156 152 140
-12.595232814372782 7.186719339761702 32.98073838265706 151 131 132
5.118978232308809 -16.942322011161114 -20.905183248835723 61 52 55
-12.330083413456363 7.335988422323802 33.19796666525162 93 72 53
-15.48143475905342 12.295191431285597 37.530478865397846 49 41 39
-13.851987641165335 7.431360521996774 33.610743383446916 115 81 80
-12.743003604744693 7.242957476745959 33.140737805139715 144 128 128
