ply
format ascii 1.0
element vertex 707
property float x
property float y
property float z
property uchar red
property uchar green
property uchar blue
end_header
-0.8067581107051832 1.9678068588835367 2.7353283067017657 175 158 166
-0.8787989661431893 1.9468314239337563 2.8610850761496534 200 184 194
-0.8145190388926751 1.9556071585012806 2.824342057917964 204 190 203
-1.0909532596110683 1.8297727285949397 3.426668485388474 84 41 60
-0.8495520840879289 2.7234810609162063 4.682305042155162 191 188 195
-0.5699479534039943 2.3116620186762122 3.152855165790001 178 156 158
-1.031478033979381 1.8666533074859577 3.310775043158694 193 190 197
-0.9694786711642968 4.343725240728681 8.449983027729145 151 132 136
-0.7316083221059011 2.025220198160621 2.636486044553322 115 77 98
-0.7181867098144459 2.016658878630301 2.726227218855332 188 183 187
-0.988668265205534 1.6306415698204695 2.5472858102395577 34 18 28
-1.1248439758255078 3.2672086983987065 6.918801729771637 164 119 116
-1.0331979796588338 1.864443713416927 3.3169572979224573 225 215 223
-0.584479691364621 2.588718361834069 3.8802458045956256 40 0 9
-0.7051394940235844 2.078211352903858 2.892664831692007 55 22 33
-1.3281892052204323 1.2199917145244703 3.1447907150953323 158 154 153
-0.7562761255539097 2.002907503328095 2.7180138405876866 182 180 191
-1.126675166352715 1.8054748219339753 3.558594380365778 157 143 158
-0.7657114043155383 2.0012873375319598 2.713275957067208 185 177 188
-1.1937471241794877 3.2001907523952937 7.112645331082182 192 173 177
-1.300820810326321 1.6071484028892562 4.062492499817318 187 174 192
-0.5881219284840556 2.3221022488273797 3.2398450883131056 206 197 202
-0.7261596994774875 2.0297376035871815 2.8614064047715195 180 164 175
-1.2157421384196379 1.7164582535451418 3.872759388093278 109 35 52
-1.3282539846321397 1.8510824222944815 4.901771918497391 168 162 162
-1.0632577125104299 3.3625498727311953 6.890019119266318 45 28 36
-0.8780623577252687 1.9338676904101726 2.9247131684916314 181 149 164
-0.7968518363263326 1.9676131608972465 2.761006158666685 178 163 168
-0.6578157087785946 2.241531884889841 3.188712289500808 43 26 32
-0.794808835899337 1.988935046817951 2.6055092978823713 64 20 37
-1.0895267426537232 1.8202386036401994 3.48123342990518 191 181 189
-0.7412303266353519 2.0253418072828495 2.6381244325195654 179 149 159
-1.1148471762848713 1.790531759102829 3.5699510594338304 63 36 51
-0.8706282352828879 1.7711373208204093 2.475567589590608 159 150 153
-0.7678485424076485 2.0091012413474623 2.6171140960947397 126 77 80
-0.7045400486711992 2.0383656885813655 2.8259585549307134 41 21 33
-0.42071969330403025 2.415799940065005 3.0328683535552075 16 11 18
-0.6988866816409551 2.4778049941555156 3.8138189978497707 100 44 57
-1.3714757168651341 1.1451925970894505 3.2697202646894357 164 150 150
-0.836764684927018 2.3240137656823285 3.7817701008437035 200 160 150
-1.2246797915182839 2.0619827438345473 4.717320849112944 90 32 47
-1.1601598334673278 3.3721237959103747 7.424516531091725 206 162 175
-0.48155344091015256 2.821813168609717 4.089383690810869 64 17 33
-0.9312326061186662 1.9317452520445404 2.988394471682654 202 147 153
-0.8946772716429637 1.9470272579910772 2.8672326286530354 54 25 45
-1.3247031581245254 1.566260482118354 4.1370798239806685 183 171 171
-0.7104697469364205 2.030610423721515 2.732112767013249 71 60 74
-0.7526858428548198 1.984654342595429 2.9094949164535477 37 20 30
-1.3156656479427333 1.9282213841895988 5.0184844907279516 182 173 176
-0.8681114104836909 1.9532442275211572 2.8188719915976255 221 188 207
-0.966998779778841 1.9281013972629066 2.9665288563491408 200 160 161
-1.134154938989064 3.0562963035432076 6.461103140406671 198 168 168
-0.535433759187666 2.344237500869762 3.2194957262185553 157 150 158
-0.6114087663311346 2.466150187598539 3.6771323785778867 176 152 166
-0.7240808633458973 2.0298626075754442 2.636825244203317 86 56 68
-0.6782443865910723 2.0464021907858716 2.692871260990334 29 16 26
-1.2227270525085612 3.285586994391487 7.454908527878481 87 29 44
-1.0776309270779427 1.8348384878061224 3.4224917083393396 183 166 176
-1.2903392730477328 2.9840231782180817 7.234012251004813 172 138 136
-1.3592972147922904 1.504883351642947 4.279625532296247 158 140 140
-1.032996623371945 1.8695680597640782 3.300590792073723 71 43 65
-0.7309202541705119 2.0160134457389463 2.7965833578718833 44 34 43
-0.7954609999639753 1.9671882693321716 2.72720275499918 138 107 112
-1.3559043832295938 2.8873744994126733 7.718997821098373 64 47 57
-0.9693113930532823 3.4911325222663625 6.731294619226751 95 59 73
-0.8703732554428615 1.932359152822868 2.9367805671485074 194 148 158
-0.8498562922252146 1.9489968084891962 2.846431051734678 203 176 185
-0.7116595717864568 2.011922165775999 2.7419799802039564 190 186 185
-0.7417432039244536 2.0090849892912774 2.8047829780433156 140 119 126
-0.6564025401508325 3.310557217171279 5.337873698526573 165 140 143
-1.348585011405388 1.1970879948501383 3.239405218495944 29 16 23
-1.0011475938619467 1.9019612631634113 3.1774259545992862 101 43 58
-1.1273697369914415 1.7918979700010824 3.5775529490295455 61 30 46
-0.7820843383562998 2.000406933579273 2.6342369415336337 21 0 11
-0.7518670002995974 2.658549094493905 4.347596131617614 68 33 53
-0.40597092929357464 2.4647450046742314 3.0827044562253736 20 15 22
-0.7678485424076485 2.0091012413474623 2.6171140960947397 126 77 80
-0.7781166572248365 2.6743669238651666 4.432063512233362 43 32 46
-1.0891012631718384 4.113213041926812 8.493700823563634 157 136 141
-0.7366113035916344 2.0529940078612463 2.5501173210108887 59 14 21
-0.9393844701017032 1.9430244886143362 2.7944548176267925 160 141 143
-0.8516075692508805 1.9635652343616916 2.7874131723948743 159 148 162
-0.8581581041633215 1.9453535941477362 2.850317305900539 89 39 66
0.09696831655029006 -1.838309959998894 -2.447716718194607 36 32 46
-1.144979646066923 2.2373592780832974 4.718889650465374 161 134 143
-0.9001814720580281 1.9466230805927967 2.9106912071873783 70 50 77
-1.0019963249673767 3.1771364250327614 6.222161114005908 50 28 41
-0.7090740632460235 2.0318343291710432 2.7889384654901894 187 178 181
-0.9019817915326365 1.9258834686108788 3.0097003190086418 192 129 148
-0.800649836953203 1.957982036197934 2.8144450031760058 108 100 111
-1.3477776201640046 1.5280204561149466 4.263729339306584 192 171 170
-0.9713430164039016 3.7275714577642747 7.312519618276272 50 34 44
-1.2987779882216433 1.5941329257290529 4.070088608720119 47 23 36
-1.347859544379539 1.2126334190777668 3.3301588053176348 114 107 115
-0.9054363875638214 1.9548135156037427 2.8172788168130176 195 157 178
-0.6824113151179517 2.045222810041591 2.628745589639853 57 16 34
-0.693453446371106 2.0356964238082993 2.6823518242529025 30 24 38
-0.832268708974408 1.9599645723773762 2.901134326351887 40 22 34
-0.7968518363263326 1.9676131608972465 2.761006158666685 178 163 168
-0.7259666096116307 2.0263531630811102 2.836045198858922 185 168 178
-0.8374698026404811 1.9419984086127318 2.860101609463363 53 39 54
-0.8084633797933444 1.9568871703043509 2.8205577660782035 194 189 196
-0.8815552186167351 1.7630556752125959 2.3769409672091686 161 125 135
-0.7366251322504977 2.0170380695054386 2.808869204460694 164 144 155
-0.5301628512930538 2.2436118636068456 2.929528804818385 53 37 50
-0.6565687013505922 2.2192610454300237 3.129743650262277 158 139 135
-0.7333151186860798 2.018960379601909 2.677552095917236 162 153 182
-0.7174135610315524 2.5116239387921113 3.937932646357816 213 167 169
-0.8585158431439228 1.9781755836535304 2.7167130224087335 198 190 201
-0.7446165056570366 2.014918746257283 2.687750251976616 33 15 37
-1.0905778640955923 3.292641566869997 6.7878482954546335 67 41 54
-0.7503931358325348 2.0169385451138213 2.6766152365252727 164 154 188
-0.9006294676879018 1.9557831104578445 2.8087482477371726 205 184 199
-0.9961572848441427 1.8784537184384211 3.236232871515399 198 175 203
-0.919250069913769 1.7045624315497094 2.423929848439655 80 47 66
-0.5876403396476281 2.452454210659685 3.590893303805215 164 135 155
0.09696831655029006 -1.838309959998894 -2.447716718194607 36 32 46
-0.5679315675086565 2.72687894342472 4.056263383250335 167 125 135
-0.892905663661931 1.9518532932969972 2.830084890740947 78 22 51
-0.6322802685313581 2.4753685718121927 3.700869101464993 52 14 25
-1.1071748839465798 4.192045424524613 8.778694288604937 164 133 131
-0.7802910414727962 2.00410964837215 2.6356242523450977 196 155 163
-1.1591326700798166 2.207382863002527 4.746706520256097 155 135 163
-0.3739254993914565 2.5190538807433875 2.9505838247737066 79 37 57
-0.805842391557889 1.9530791552624283 2.866007893512205 26 14 24
-0.5529302165723046 2.6491377567829293 3.8427318976032607 46 25 34
-0.6073977524385592 2.631890028527951 4.006296917419007 80 23 40
-0.5467617597458266 2.3260007372510483 3.187782074119414 32 22 33
-0.7929356075484815 1.9651583707119686 2.774411314782663 47 18 38
-0.7641008190383483 1.9688365429081685 2.7467855992246886 25 11 24
-0.8827366262145435 2.816330302504177 4.9848709210181985 190 186 200
-0.8920558012757475 2.9307059534515933 5.297756432672686 168 156 160
-0.5681432673143413 3.009132297065201 4.576645605301007 55 8 24
-0.7770107231426723 1.9706052118288526 2.7474940959163483 52 35 51
-0.6860886652355583 2.044548147463964 2.680932481286479 25 15 26
-0.772082456056514 2.002530444754667 2.670504777871007 180 164 190
-0.5524253319864997 2.3503026939595424 3.2757359014251026 185 180 184
-1.0891655383095153 1.8256647174689031 3.4574192891503808 197 181 192
-0.796355759804649 1.9615371778847965 2.868320545517409 192 186 198
-0.8791786918037043 1.7570889075847804 2.439047129297759 147 136 153
-0.7230440035673508 2.690289350831506 4.345775188326121 102 62 60
-1.0131313328873615 1.8664968331026799 3.301770483000632 55 26 46
-0.8839630770395608 1.7534411766161344 2.4226332702654947 149 144 164
-1.1595548960985609 1.7790158470554867 3.627470409666588 47 16 31
-0.5280851123661591 2.3436557747033695 3.2264311428785812 88 80 93
-0.7135016562331854 2.0301073170344224 2.8409565840925017 197 184 194
-1.0408813272325528 1.8572020927681387 3.3400765804728976 210 197 207
-0.4843873335639378 2.7971267904882224 4.039856767486462 158 135 143
-0.9513359896897501 1.9091245592635346 3.1313964967329135 198 161 169
-0.8652781437458898 1.9382662016931693 2.92601786854392 38 15 31
-0.6649409028938638 2.064925516411009 2.758755478264926 164 152 162
-1.182227964026424 3.402886226981995 7.678713547347989 78 25 41
-0.3577017537358177 2.5133243596870773 3.1977045644276236 23 14 19
-0.6287715336246762 2.3022233418444316 3.2674245192057696 183 168 175
-0.9717495014400009 2.932676090399072 5.5278372074324515 44 28 39
-0.5703490683616399 2.4252388227732493 3.5088382052566436 162 150 174
-0.9331189307059895 1.948611339476247 2.8544264398390156 201 184 194
-0.7499129850915606 2.5822335869639934 4.150009344193538 198 149 155
-0.8084221836575725 1.9571053688681894 2.9424103542031306 31 19 31
-0.867492628866914 1.8201343312961022 2.339691995578555 214 179 177
-0.6222987396452411 2.358407394976883 3.4019027195316287 40 26 39
-0.8496434186090855 1.956342921272061 2.823394990159918 150 138 150
-0.443618571536528 2.569951070910852 3.521128576056338 162 153 156
-1.3337643601333875 1.8560046574137605 4.962828977989293 81 70 74
-0.5630799473224753 2.517977396350629 3.678091813419278 188 161 168
-0.7653090025707765 2.018858270277604 2.632968801763959 181 140 136
-0.7676326310911743 2.6884142379499627 4.453277956441017 139 129 153
-1.3629682449592064 1.887665901323626 5.287504787651835 153 147 147
-0.6302323244651408 2.1134140146103984 2.753263556918733 24 16 31
-0.8516075692508805 1.9635652343616916 2.7874131723948743 159 148 162
-0.7880613409689177 1.9668153260802417 2.725012783848848 101 52 73
-0.9010874548233422 2.81897193005229 5.025261668619614 174 164 175
-0.6287715336246762 2.3022233418444316 3.2674245192057696 183 168 175
-0.9156029438413682 4.003835671546412 7.460797908907115 185 176 179
-0.8151462461582807 1.9678337468188947 2.7386743643659193 193 173 184
-0.9305986319339238 3.4238139872603237 6.358994913024329 51 29 42
-1.2506759627910058 2.129193359582707 5.071885703579012 190 159 156
-0.8616889173448455 1.8282163656012724 2.3348532544388156 88 45 38
-0.7785534532167037 1.97659456650622 2.693257107923428 172 156 159
-0.5906671391441825 2.308934253604771 3.169880272717061 41 17 31
-0.813326936036467 1.9733394110591589 2.6939074223121175 216 195 212
-0.720686563588305 2.0535953999177785 2.939051042451357 183 172 176
-0.6443954684287629 2.126492277736906 2.9201305543841585 161 141 152
-0.9105339304179078 1.723229123248225 2.406022946762313 30 12 24
-0.7101645799035806 2.037079789999813 2.8498482869614357 73 34 53
-0.8991684335779714 1.9439299515648951 2.8400928141162085 184 166 180
-0.3639926954562264 2.5529214826414153 2.9598333077968904 100 70 78
-0.8841405205734076 3.1614249808809465 5.72808516276915 160 149 155
-0.7815809317568785 1.9947914055075453 2.6721322296132644 42 20 32
-0.8617056636728416 3.1772455693388926 5.691440715621413 68 52 62
-0.8623999398779392 2.2955152618504076 3.7668020837774017 55 19 29
-0.3677321930721913 2.552761984121084 2.9611547977874153 92 76 86
-1.1764618470633224 4.204982607684465 9.14524153790604 95 38 53
-0.9067480397336107 1.9291734324155068 2.9825840243760235 210 157 165
-0.4496584040862418 2.5632387606309277 3.459844973327225 53 40 47
-0.7332443503199599 2.01177036114695 2.7260029037929114 110 107 114
-0.7485389368262967 2.6529701781811172 4.3134689655385365 25 11 24
-1.1618990492823622 2.2168766833479685 4.727093616105988 81 35 48
-0.7679255138285819 1.9821473041531068 2.704823184524436 193 187 191
-0.6535164154516458 2.334126010610892 3.3858688828690204 150 139 156
-1.105365159875864 3.279808191252296 6.859806724204538 197 172 176
-0.7362473766587353 2.038040068710946 2.5623494743465294 68 14 28
-0.7928597190019977 1.9839425389357586 2.6580431650519425 33 14 33
-0.8256150835467938 1.9734351743813958 2.706991166544344 91 45 71
-0.686656048637849 2.0535708769255114 2.8372083938689903 44 27 37
-0.7159782994814781 2.0263457523492483 2.6791004710496376 59 53 79
-1.1921837036964547 1.7430323291989127 3.7502221849397537 186 124 135
-0.8211342333251822 1.9473782717495833 2.923086996713396 165 156 183
-0.8017095578173933 2.4890254297730445 4.025275231255971 61 17 30
-0.6927539978791843 2.037478912214659 2.7737959284882345 195 190 194
-0.5608099438803371 2.2264994204202253 2.9519795363658137 174 157 165
-0.8361586909427342 1.9685558985863862 2.763643669033869 194 178 191
-1.2824244039852712 3.668696621328232 8.821178202531756 65 25 33
-1.2280076011666594 2.0983722572158374 4.802450599888497 175 135 144
-1.171286372388371 1.7280396407219598 3.5551721772997276 143 132 149
-0.6945093287934869 2.11192068753848 3.0603112993760644 44 22 34
-1.1628055634878627 3.329386663111463 7.277927692137047 202 144 159
-0.5597712516224927 2.2381002449389444 2.9745723103746293 93 66 83
-0.5573489977251271 2.6538646619031288 3.8925540252683417 155 111 110
-0.6061341064914616 2.684872714529252 4.119386507908175 100 47 67
-0.7091621991475331 2.0333838990670117 2.682326350737101 26 21 41
-1.149147803236104 1.7792993086316868 3.6349183822961115 65 21 44
-0.9920521748923155 1.8865324212968213 3.232322495997519 67 48 68
-0.7196323931477744 3.887179060057906 6.6596417130532695 100 90 98
-0.8081255410215046 1.9510490370610831 2.841946549456263 204 194 205
-0.6443954684287629 2.126492277736906 2.9201305543841585 161 141 152
-0.7331617730259093 2.0168579772562296 2.821315381371981 84 35 54
-1.3140882661126847 2.8457259225007667 7.227344333067748 185 170 189
-0.9054363875638214 1.9548135156037427 2.8172788168130176 195 157 178
-0.9088717387519913 1.9475709657557712 2.846851343630149 100 73 92
-0.6992429941697003 2.0385554302178805 2.735037919457356 179 172 180
-0.5494787520725752 2.282916467672213 3.049974676896901 173 149 162
-1.2704286453969202 1.9277112378754537 4.675490231560763 169 148 145
-1.4266862994242075 2.242214132469575 6.756083933232625 70 55 62
-0.676386821420092 2.350182239298874 3.488079573557021 170 118 122
-1.3989400708257034 1.7458078713732286 5.195497333815692 57 40 50
-1.2452272958492334 3.187097003256457 7.470543575234039 90 34 47
-0.8252114862913758 1.9839064224658791 2.6615965440865197 49 6 36
-0.7025544064668873 2.0911535959285867 2.986599754129722 163 152 150
-1.0135259100443947 1.8844090057107756 3.234820769325151 82 57 86
-1.019936575052956 3.581145269307672 7.14507994434458 161 135 146
-0.566182101296966 2.7393214351257384 4.073358693467382 133 96 104
-1.0905778640955923 3.292641566869997 6.7878482954546335 67 41 54
-0.6021810730230563 2.323438646355696 3.2518559666361053 194 187 194
-0.9401767956179695 1.9275745511981242 2.987514148117502 187 141 143
-1.0642903662829484 3.5736517858288686 7.220135883940633 190 169 184
-1.3074111281127354 1.290500898596251 3.273212432003488 57 40 50
-1.1335326427431527 4.113136840165673 8.84030464964681 195 148 156
-0.7562761255539097 2.002907503328095 2.7180138405876866 182 180 191
-0.8874073648045816 1.9460304102815786 2.8071701676702845 214 206 217
-0.9565490958090467 3.3040186654188317 6.221867262614381 168 159 164
-0.5881219284840556 2.3221022488273797 3.2398450883131056 206 197 202
-1.0817728993016194 1.8296493512170342 3.455064529779453 178 167 173
-0.7245641120485313 2.018775409429571 2.7170656908002306 48 38 49
-0.7094432649885382 2.0311302515625114 2.7199159689886345 172 162 173
-0.4353753215956791 2.3978528233153145 3.017222855975061 18 11 18
-1.3564696667947245 1.7203228467511527 4.836932149791078 57 44 53
-0.8483712512868552 3.1502006862574823 5.598114147719841 175 164 170
-0.5990169145952332 2.1735174989911985 2.639516925795583 42 23 27
-0.7271032474353942 2.892155235526633 4.775419073071133 37 25 37
-0.3765720494215762 2.4693574624068924 3.1293817659342027 25 14 22
-0.7979208456976148 1.9635752893384812 2.810750216567862 60 48 70
-0.6881447206971718 2.043978592123874 2.8120096755882757 172 148 162
-0.9567379341453045 3.5650150537260594 6.790668040212735 187 176 180
-0.7919957896648198 2.678189598640089 4.451148555652822 18 6 18
-1.3246972006385038 1.230732924508014 3.1505256360848386 182 171 175
-0.929492335515929 1.9111588357904763 3.075412159219796 209 150 170
-0.790578880430622 1.9635337538518085 2.7329349244468077 186 169 179
-0.43656733658502267 2.3722708987764762 3.0564269910282973 20 11 14
-0.7684851314387405 3.1880903294767617 5.43269290980011 33 21 31
-0.559825034733761 2.3343025723951856 3.241447640635241 190 178 180
-0.9725688701832759 1.6607457762348008 2.659981702861906 51 17 31
-0.7069763396812377 2.0352664995058674 2.829154692403429 173 153 164
-0.5211885619813047 2.928976057894499 4.347920079393595 55 13 23
-1.3221019820335993 1.5109608031958999 3.985256413241649 175 165 164
-1.3242161896177922 1.5292614120342454 4.040176784926328 178 166 168
-0.9331189307059895 1.948611339476247 2.8544264398390156 201 184 194
-0.9397606564604056 3.3875324528413135 6.364317182215829 179 173 175
-1.161574921462386 1.773365746909453 3.650128784767268 216 183 204
-0.7941889310432891 1.9530936569762232 2.836294954489072 66 57 74
-0.6775838237059038 3.4688876928568146 5.7324806761241085 127 113 128
-0.8592740299249695 1.930989420322518 2.928338922679153 30 0 12
-0.8679423102400464 3.037614791803294 5.456389214716765 53 40 49
-0.8916162603850136 1.7457493318464328 2.3845452768092454 134 100 114
-0.7524679595862266 2.014673234631139 2.6834450876350666 33 24 41
-1.385070685479884 1.6950076070442224 4.976328314087048 145 126 130
-0.7801037615762778 2.6337488317166975 4.325351598781803 48 30 44
-1.3225999381615703 1.4379735317192257 3.8538723784379507 164 147 140
-0.9246771736556681 1.9311498786215033 2.9747839524309283 216 170 173
-1.2005106744101437 2.1118900131353637 4.635531753449843 101 46 65
-1.3735193096839269 1.1452450561722183 3.3131561504583633 91 67 65
-0.6687453339659273 2.0662384967817773 2.757804475960984 145 135 144
-0.5909220025206839 2.5328205535781745 3.771408929694928 171 131 132
-0.9170580743066198 1.9271744603056014 3.0336790369743385 194 133 151
-1.369063923688903 1.1531387804406714 3.2574428909521003 142 130 132
-1.357972880580697 1.1800720798939452 3.255687432940352 65 32 41
-1.209017844350623 3.39407159192133 7.651556587036319 196 155 169
-1.2846023029365716 1.8971386752073995 4.740604208921196 178 168 177
-0.9592809545519818 3.508072206957216 6.657796843973275 131 109 121
-0.777471482197389 1.9604033796479594 2.756063739039945 196 175 190
-0.6976296401911697 2.2113659589550156 3.231069343860354 144 133 150
-0.5513142322577131 2.3027621325756407 3.1263215517801215 200 159 173
-1.0642903662829484 3.5736517858288686 7.220135883940633 190 169 184
-0.8934489713738089 1.735430669039384 2.4183065118779603 143 121 134
-1.256125462571748 2.014469735150839 4.843072750535214 154 125 111
-1.1988994357483282 3.1395585401570383 7.189143597076135 77 23 37
-1.34144349968945 1.2178923780398303 3.2880355736626043 166 159 166
-0.9318993669289064 2.716905888270424 4.824541510299917 191 173 171
-0.7240047176172866 2.0259782360258907 2.6746885677436425 35 26 45
-0.8354326964329658 2.678292287931921 4.547989759174252 47 20 35
-0.7368883890117933 2.0117458264974335 2.736621610481765 66 54 68
-1.1233676359515783 2.3859268534548157 4.95173410472776 165 125 123
-1.1704929807830686 1.6658180107753708 3.4580679068209554 109 87 90
-1.2632153867126776 1.863011104935961 4.520905458796644 178 160 160
-1.2618070084534303 2.039131010930737 4.864498802524021 191 157 148
-0.6828607767500702 2.055277483284338 2.85219515728044 128 101 116
-0.7290343530912402 2.0217305240321433 2.689657136465177 10 0 11
-0.9026325871551281 4.1047950035049015 7.612863795895941 93 80 90
-0.8759015795988939 1.7567486096935692 2.4380714927221456 22 9 27
-0.6932051941527934 2.0351590820923393 2.7381437456028364 30 18 30
-0.9133402147582498 1.9368977351756025 2.9803310698885914 121 51 75
-0.6872040419842701 2.0405096541901715 2.696133475465488 118 110 134
-0.7290176413658419 2.039437699298113 2.891966071666803 173 156 166
-1.3506592001352888 1.4719584650102757 4.105032038578566 155 140 147
-1.1335326427431527 4.113136840165673 8.84030464964681 195 148 156
-1.1504929423080208 2.134136466559281 4.503223259275281 168 120 120
-0.8768022941126135 1.9346974929601841 2.949344445894782 106 44 57
-1.0970440618582946 3.945725382174405 8.20053866735804 60 22 35
-0.4743264360908612 2.7083950649717363 3.8428268807494863 24 14 25
-0.9570907656236085 2.89643796898231 5.388291744200865 173 167 181
-0.606031349732322 2.121834130721265 2.748453329715281 33 22 38
-1.2175508748427448 3.433110253033204 7.843033301399027 58 26 37
-1.187834120859469 2.3444938114531557 5.1861668272390045 165 120 123
-0.559868004863535 2.608834257242914 3.819953212771801 69 19 31
-0.8794419720126633 2.3400757223483954 3.9033245157058487 157 140 148
-1.3205805324401445 2.8671435836182457 7.365198007886451 182 165 181
-0.4620160403740198 2.4658969317262516 3.3563507231422998 157 148 153
-0.9970046628077436 3.2741144402413784 6.431902212303111 47 25 37
-0.8622776268499258 1.9368441219519117 2.914368388706459 171 135 149
-0.929492335515929 1.9111588357904763 3.075412159219796 209 150 170
-0.808108874801839 2.674574359835878 4.474206743647854 141 133 154
-1.256028849556093 2.049624386409902 4.887299867451697 209 177 178
-1.060663420047993 3.066335628133471 6.186150345369899 52 28 52
-0.7437675805398812 2.0201675634285934 2.6867711355334425 182 171 203
-1.3651118492862988 1.7585215990640017 4.926796695186758 77 60 68
-0.8462431510588327 1.942980676018043 2.850589662321074 178 156 159
-1.3535814937300454 2.8287165546941337 7.602614102786452 215 209 211
-0.7420149657626659 2.0104792498674264 2.750642656572791 174 167 175
-0.6824113151179517 2.045222810041591 2.628745589639853 57 16 34
-0.6775838237059038 3.4688876928568146 5.7324806761241085 127 113 128
-0.746528769490385 2.00390378279589 2.8359444118922794 187 176 180
-1.0994217584376538 3.227781865822707 6.723248097913503 102 52 64
-1.369063923688903 1.1531387804406714 3.2574428909521003 142 130 132
-0.7094432649885382 2.0311302515625114 2.7199159689886345 172 162 173
-0.8701580344098637 1.9452071627726366 2.8532285989581587 190 161 181
-0.9049208899709673 3.723069344260648 6.886758714863322 54 38 49
-0.7332443503199599 2.01177036114695 2.7260029037929114 110 107 114
-1.256125462571748 2.014469735150839 4.843072750535214 154 125 111
-0.8585918543042199 1.9438720610317404 2.869339468802975 180 147 164
-0.628060563421416 2.463720899819076 3.6767694471070618 195 156 161
-0.6670944666460533 2.0639937655440104 2.76550885016824 78 68 79
-0.5982292103609135 2.393655290314797 3.4345136120425273 56 36 48
-1.2117733933174664 1.9410880405183344 4.38112534185006 136 96 105
-0.6833546547193379 2.0550102391330567 2.741111508915316 59 28 46
-0.4410692117194894 2.5825241825307006 3.548564885947225 192 183 184
-0.9739810282961662 3.53885967399225 6.8758137038935505 157 145 147
-0.6755904095705922 2.0828341538156305 2.9129292601805017 186 177 180
-0.6231632611693529 2.1213931258209393 2.815378488822579 33 19 32
-0.7135666046650129 2.0249684413303144 2.7961070111010784 207 196 202
-1.328627268618691 1.9784252438238317 5.166465830797896 120 109 113
-0.8530193823973237 1.9464436682816944 2.844195156652391 126 85 103
-0.7303086956497908 2.0207337098323332 2.785370411843542 219 210 213
-0.7101317370630438 2.0365148773991226 2.842085926073183 189 157 172
-0.8534413870486972 2.732647242137289 4.680101721719961 79 67 79
-1.3478485520145875 1.2083693088016412 3.3125383945440436 174 167 175
-0.8874073648045816 1.9460304102815786 2.8071701676702845 214 206 217
-0.6144718266548053 2.458593771370562 3.635597933131619 54 22 33
-1.167785535563589 1.702261479691693 3.5142569456021175 35 19 29
-1.0073575844022338 2.9599581092172484 5.738226683847502 96 80 91
-0.7034767680238001 2.0340609571786623 2.807439740468376 165 148 156
-0.8757495324422205 1.934373205105323 2.941527293489856 43 3 14
-0.7153998568953293 2.9191285865250705 4.779633306771754 42 24 36
-0.745853636047413 2.59782906730623 4.175836650277903 180 146 147
-0.9084770847631891 1.952421222022501 2.8381842526707506 198 182 192
-0.7523358090809887 2.0002857983207125 2.7401140139748574 196 189 197
-0.7767696856706707 1.9665070557850577 2.7067700617460444 204 195 198
-0.8909329367609723 3.0833074642293985 5.591678583037714 180 174 178
-0.5022252868391324 2.6080534343857638 3.7154579954500786 12 1 15
-1.060663420047993 3.066335628133471 6.186150345369899 52 28 52
-0.7766884937202099 2.0067140546532167 2.633719877211932 61 11 23
-1.067309044587565 3.0429102634385545 6.173650427617925 161 147 172
-0.7431548457507022 2.271253512939048 3.4486181303222523 64 14 26
-1.3725587547005038 1.8120882235038187 5.1878142514767145 152 136 139
-0.6957829679680569 2.0505476093166153 2.8455704741661467 170 150 161
-1.0646937615930538 3.8959205028357773 7.964719972760573 48 30 42
-1.336253398681956 1.2212934503071589 3.238048483389828 64 47 57
-1.1944832076453558 4.109112292950151 9.0854944713942 200 146 160
-0.9443061700057639 1.911997052896743 3.1340146759095417 115 44 60
-0.5835008463007181 2.5326921560538476 3.7592504659879085 100 54 57
-0.819916070122159 1.9608386283242005 2.8233121168738977 128 93 117
-0.6598684828191149 2.7706941853407416 4.398598944429207 194 164 174
-0.6791060005428203 2.060787058276782 2.8542305827033014 153 133 144
-1.248133436883004 2.1440166125019635 5.115285289497802 144 122 124
-0.7480910577356473 2.0321750059972223 2.5349927948562927 47 3 18
-0.755820958374918 1.9860259792396828 2.770278430938045 11 0 8
-1.375569677170245 1.7284290763654409 5.009625429339063 77 35 47
-0.7307954224150542 2.1348866838224856 3.166180699874837 33 17 27
-0.670016240046614 2.3550595868648285 3.4870196703234533 50 0 7
-1.3218068403693193 1.576751586780084 4.1586287342432415 196 177 173
-0.9179322697227346 2.932028360937795 5.38356280889954 174 154 165
-0.9137759699107775 1.9223602920261083 3.0439943544010077 202 133 151
-1.3599090342675701 1.1839872366507975 3.3234630988547567 153 142 146
-0.7437326839300201 2.2623052614833434 3.423679692123157 150 85 91
-0.6989917258697146 2.046053102151448 2.86055428507555 150 119 134
-0.8832277250611985 1.7582666418195805 2.3908369102966214 150 108 110
-0.6733282290613825 2.041682234721252 2.760172786689095 209 203 207
-1.3468302889607489 1.1954575863419628 3.166711445166993 150 146 145
-1.04078931928849 1.8575692500928997 3.317693115758745 224 215 220
-1.303245866914818 2.0838690762718133 5.223573534101665 58 45 55
-0.8189905739058684 2.334945576281835 3.857070209230864 36 16 25
-0.9549006103768518 2.1816130350852916 3.7802268430770707 26 16 24
-1.3505899316056014 1.2037498919300857 3.3175060786887216 40 30 39
-0.7290251255200831 2.019948363766991 2.7891139726763945 193 187 189
-1.3408787783706964 1.2001849937468478 3.1476139384222392 180 175 172
-0.9023168177557572 1.9393243962529572 2.91622770634968 159 155 182
-0.8671351214189166 3.134631413412748 5.608006649296148 183 174 177
-1.3611735241998997 2.000931728949067 5.494000237798489 148 137 141
-0.8912112785067752 1.9539118357720762 2.839045821629298 103 49 83
-0.5589236939915508 2.3296167221620476 3.2025973786221122 86 45 61
-1.3701473300093991 1.1509290414595301 3.306377078115384 183 169 169
-0.8288454786091697 1.9581037019701326 2.781319469923696 179 161 173
-0.6617892076436265 1.954140269453025 3.269514956604806 165 139 148
-0.6983588238424676 2.3565154173572838 3.5332790335640865 156 101 106
-0.7701589386654925 1.9671456693384501 2.7872125137581545 163 153 180
-0.7714707337207162 1.9661439094503832 2.7173161517090794 190 184 188
-1.0875198715215764 3.6969010136989477 7.643056361442116 149 128 133
-0.9358389980836216 1.6939468828519935 2.4464163526817964 182 165 175
-0.496609619061793 2.2824587729332984 2.9659207194377433 39 29 40
-0.5244292719920703 2.5866287282419123 3.6749787501664777 30 18 28
-0.5495296172266293 2.519143451100969 3.6289076171634354 118 105 115
-0.43891651756557193 2.7958506034483275 3.958099284676836 134 122 134
-0.6062207083582273 2.3170222246582894 3.2591903791315127 124 102 114
-1.253115155873747 1.971643115297657 4.683673199771743 59 29 37
-0.5844736536059952 2.588564412439043 3.8624510178323637 190 175 182
-0.6231632611693529 2.1213931258209393 2.815378488822579 33 19 32
-0.6572458226365819 2.682481666403684 4.204411148535753 206 183 193
-1.373921493525971 1.1363577824776898 3.248432490548046 41 26 29
-0.606616927936828 2.2497654368992137 3.068736146918944 67 36 51
-0.8553119955895869 1.9311290953245461 2.9946394564850625 52 20 35
-0.8401295763236297 1.9439510492268084 2.908833841286511 33 21 43
-0.8459704445192052 1.8476369527061216 2.3470137581097608 13 7 11
-0.6129631320921278 2.2983782263807115 3.1638000816111718 86 75 89
-0.7750480249721086 4.362974210528585 7.668337700007749 168 159 164
-0.8849877598111799 1.7453689445120641 2.457309109107294 165 158 166
-0.8855898517277914 1.9328297374884567 2.9621273481640413 132 58 81
-0.8651052605751665 1.9526889801172527 2.8213996587634966 125 87 108
-0.9086725789585972 1.9572892304976246 2.8140394509775546 106 50 79
-0.7414857320078785 2.0399841567405463 2.566370611535765 218 170 170
-0.8579974740231056 3.906305215729366 7.108750190127759 179 158 167
-0.7634341353081138 2.520880634693188 4.029553091363473 66 14 26
-0.8888631863349908 2.1978518200926818 3.6587341146751418 17 10 17
-0.7265513850031294 2.027631607855571 2.6158073535021207 167 150 169
-0.9109708549754963 1.939209955189985 2.9077563856317337 56 27 45
-1.3478485520145875 1.2083693088016412 3.3125383945440436 174 167 175
-0.7254559848506905 2.088337523248553 3.032407514032256 25 13 23
-0.6251877619011622 2.296216309243886 3.2451732943648994 60 23 40
-1.3434253251936739 1.4165101736061574 3.936810233674306 55 43 47
-0.8707156959420619 1.951879950625227 2.8374686305207626 126 112 127
-0.6565310546388776 2.3325333404223327 3.3699180393278634 26 9 17
-0.7525641946227668 2.0173384314145135 2.69676532159091 168 150 174
-0.4464679369892716 2.620228805038103 3.60741823304577 55 44 48
-0.562064473926104 2.4518242522618 3.5346524455093182 150 137 157
-0.9863643155917607 3.4258774939470014 6.63480026601925 172 160 160
-0.7055506223038271 2.033565304277549 2.8149310930130627 163 145 157
-1.0030076341962113 3.03570860936838 5.952204681041454 54 36 48
-1.2975262791521873 1.8955976052844652 4.794241632368594 133 125 138
-0.8216706478726752 1.9650021182707533 2.747254702271545 42 19 39
-1.3001684129377928 1.9575265079663218 4.9926596425216765 54 40 53
-0.4689118935680595 2.387016248307075 3.2001874688988052 156 133 141
-1.3205805324401445 2.8671435836182457 7.365198007886451 182 165 181
-0.8728306235049408 1.9533379006025382 2.826199762409 128 85 113
-0.8100981041816349 1.9782396128789657 2.6553312697883795 28 14 27
-1.3737294498532397 1.1250821851077508 3.2670461169639333 116 100 103
-0.6804825268076121 2.7245164847949352 4.325890396922858 201 184 190
-0.8370299754805318 1.946105436240989 2.84517655567391 209 194 197
-1.005485614514312 1.8944702855301188 3.1852776480749294 80 18 41
-0.7374320397407579 2.664257709786984 4.328110833841535 183 153 163
-1.3445336018967287 1.7205906511792148 4.718151162059194 188 184 181
-0.47885788395774825 2.8455034137948076 4.1347975945930715 191 152 157
-0.7637068998536396 1.9894708408516961 2.718667604180186 183 177 187
-0.5822248762900922 2.325770751921307 3.2292426114666446 214 205 208
-0.46980909053079295 2.5409094535761336 3.519749607630646 122 117 114
-1.0422232329164096 1.8597887532260131 3.354454708208525 128 104 117
-0.5667125070875746 2.2227415884588697 2.9631208464733656 106 82 96
-0.8246098807253114 3.652147163431147 6.505100981703638 178 176 179
-0.8920542897081276 1.74514132795654 2.41628260112161 146 131 150
-0.9129394873822251 1.9168967264910532 3.0412614550560124 87 12 35
-0.9179322697227346 2.932028360937795 5.38356280889954 174 154 165
-0.3755127971560332 2.564308853277229 2.966051086419518 47 16 31
-0.8651597127098457 1.7770012537125592 2.4531864883524532 14 9 16
-0.9358578707253628 3.113459901008278 5.791482005473174 67 51 61
-0.7694734989555568 2.574832615551845 4.144104695011481 195 160 156
-0.9031999698088539 1.7339426405305638 2.4072219041819194 121 109 131
-0.6584954222435513 2.084389664894443 2.8299399648113606 218 206 208
-0.7348293382149133 2.0291085640218345 2.8759459312630606 44 31 41
-1.0086487793536612 1.8996771520994973 3.167053737809284 127 62 84
-0.7494115672903113 1.9862294344314182 2.8184475390523547 36 22 35
-0.9476020449909613 1.9285612965851098 2.9861950705925735 180 121 143
-0.7267552898520682 2.1742998922343735 3.227357423357621 155 129 142
-0.720097192433439 2.0294630604097237 2.599577410309964 171 148 174
-1.3904608362971103 2.7627829563265247 7.762490333338384 172 166 170
-1.427872025439348 2.379062070731228 7.240457993025301 79 60 66
-0.7104257496082341 2.028403102922615 2.6989874912556107 43 31 51
-0.7069763396812377 2.0352664995058674 2.829154692403429 173 153 164
-0.6104692282950999 2.6921021518336965 4.144000475396458 165 123 137
-1.1755583532152512 3.3331463169575786 7.428463497810889 93 26 43
-0.9268190167621567 1.9162420818843464 3.0805536176504567 87 15 37
-0.7774872783102328 1.971294478758433 2.700125481329155 143 120 130
-0.690783429949628 2.043609798054363 2.678528100168916 158 148 159
-0.8941533777057936 1.7426898915032165 2.4141552950940945 146 131 152
-1.1581216164733803 3.1612706570730276 6.86237474575152 109 45 61
-0.8669841894427637 1.8272135357074741 2.3353638167433735 183 146 137
-0.670016240046614 2.3550595868648285 3.4870196703234533 50 0 7
-0.8967140559546019 2.842112594385659 5.104423808225167 168 155 173
-0.7417804698009015 2.0645519455092254 3.0101663108889043 25 6 12
-0.45790041904300577 2.393010733733216 3.1836736784482342 43 30 37
-0.614784452267117 2.171704690179396 2.9312636599859454 146 129 137
0.10158061107687645 0.6207761975731784 0.8010479153147123 159 142 152
-0.7683591359863483 2.8646407695045757 4.7985080218212435 177 169 190
-0.8909329367609723 3.0833074642293985 5.591678583037714 180 174 178
-1.09369150312806 3.4650310260473915 7.301032731997145 162 125 119
-0.663121277547624 2.086723195911745 2.884068962017642 157 137 146
-1.3140410526111024 3.2201504794426845 8.080373660766936 147 131 134
-0.9699220819315315 3.0444051881344145 5.801231812836763 85 72 81
-1.1588686115621296 1.6939782438793414 3.4328548310610616 54 22 25
-0.7343921914300091 2.0115458183926855 2.729413087910341 183 178 185
-0.7417139703671298 2.0103728612891674 2.855974023893398 185 172 181
-0.8815552186167351 1.7630556752125959 2.3769409672091686 161 125 135
-1.2843237782530865 3.348941100592388 8.019266114296608 78 31 41
-0.5848240874464887 2.359548293621973 3.322266964890695 175 150 154
-0.7644377094473432 1.9755541003374968 2.7240221467560977 53 42 56
-0.587079602647011 2.581019342156595 3.8686163957556223 171 120 137
-0.6974729966449256 2.034491962388123 2.786822456314501 206 196 204
-1.2990125518527387 1.5533277436914221 3.9216022081629665 128 111 129
-0.7437326839300201 2.2623052614833434 3.423679692123157 150 85 91
-0.5807190793470988 2.3248158495080387 3.259602087000782 216 200 201
-1.0919305949807891 3.4337354608509303 7.1200432560578255 168 141 150
-1.041172520854182 4.05174380914041 8.22616064800018 129 113 123
-0.7998794831683766 1.9661303190500385 2.733282891094902 187 162 166
-0.6988953765949826 2.3363787421855307 3.494764527415708 92 34 46
-0.5243171335848498 2.4054595547093403 3.344931751816731 141 132 137
-1.2058171974551337 2.048773021063927 4.5677104028170525 82 25 40
-1.303245866914818 2.0838690762718133 5.223573534101665 58 45 55
-1.265728232845462 1.9749480499899854 4.783610241094492 126 88 87
-1.2202485191129882 2.1715500641378296 4.980798650748886 139 90 112
-0.6839825763331198 2.0445210893269374 2.6873243350899014 176 168 181
-0.8798363661910986 1.7579262624557106 2.423673397357662 8 4 19
-0.7065286539982907 2.045738177394414 2.893293082144383 42 26 39
-1.0862923038138506 3.223546393113341 6.631809544036767 171 150 155
-0.5720769356963247 2.178283395945927 2.655513191506367 18 2 28
-1.137885771073271 1.6115532069107468 3.249496380264023 27 16 24
-0.5616645604599844 2.296516639323004 3.0969663252273 169 151 163
-0.6598684828191149 2.7706941853407416 4.398598944429207 194 164 174
-0.7160212363351887 2.8818658268800794 4.749931502264245 202 190 200
-0.5685614900683462 2.3243567105783614 3.228729302491297 165 130 124
-1.4179638787158233 2.0765356153886128 6.2903895948165856 172 152 153
-0.9179330148374724 1.7312094375770233 2.6215111854553497 29 18 24
-0.8507592436338957 1.8005520431348516 2.4421367492977963 120 100 102
-0.6898805229181022 2.0360589248865852 2.720845327641091 125 113 125
-0.7329393756155297 2.018479640574045 2.7310668567058167 186 179 187
-1.384901140703269 1.7839057471375717 5.294589767906781 82 67 72
-1.33145572360054 1.2138084350646592 3.1386766770149532 187 178 181
-0.6906068481563349 2.0453851394064864 2.8030170270656654 198 178 190
-1.3340894622852206 1.2144284415184474 3.1479679845112383 90 79 83
-0.8537959707445758 1.9460060685535028 2.8620810142061273 217 194 200
-0.8727176104811322 3.236871668231421 5.833789567528837 167 154 163
-0.7806093032488802 2.7158216707301013 4.553409092409309 173 160 188
-0.7457493391815722 2.0352973201430777 2.5391854964237033 196 154 155
-0.8001491438574184 1.967256413954899 2.712549752435017 230 214 214
-0.7856960458837023 2.038811801219143 2.53201387226952 68 27 35
-1.330897056573977 1.5047047030533691 4.043925871019959 95 65 75
-0.9108624844836077 1.9481317110299885 2.838220641829465 108 63 86
-0.6951753021492467 2.0717923886151817 2.9321410814339988 194 185 190
-0.7106810981390347 2.737423260619794 4.443665617617646 37 15 27
-0.7454917246416572 2.0295211052769253 2.540239603953661 200 151 157
-0.8703308687055475 1.95408813019749 2.8330147038425704 191 174 192
-0.6826329285931589 2.1683962398560883 3.0997768372517966 80 70 79
-0.6662257823698736 2.0624156519957086 2.625934275619298 41 3 16
-0.6652048582067314 2.078983903719534 2.6661536385755107 49 13 25
-0.3034341298597388 2.629334244268306 3.3714245520313866 67 62 68
-1.3273009009413295 1.9584936838219658 5.110031868496061 56 43 50
-0.7525641946227668 2.0173384314145135 2.69676532159091 168 150 174
-0.6327138713264617 2.1282384701020307 2.8760122239916988 101 94 101
-1.145272784095046 2.2720875797699263 4.826514228030448 192 160 161
-0.6949175739760829 2.047065131466436 2.8498117650381043 186 160 171
-1.396861624516115 1.8209400319528712 5.4022183791791765 165 155 156
-0.5462164576439779 2.3825730297513714 3.3493340651842396 168 162 172
-1.34055725212226 1.2035694445067011 3.178486769864755 79 49 61
-1.3412049402194648 1.5377075683587789 4.178972595939657 138 122 125
-0.4369190139983742 2.4589340082027817 3.220583126108371 67 57 58
-0.5819462465598301 2.307927754881822 3.1894596982443444 200 187 196
-0.9589061376107816 3.0394001531484194 5.74129127116698 192 182 190
-1.0217537927689595 3.166815232794569 6.287064965068952 166 146 157
-0.7451145613426653 2.0063994955753106 2.7520115470761475 186 176 185
-0.6898805229181022 2.0360589248865852 2.720845327641091 125 113 125
-1.2922985456109957 1.4774122901256088 3.7539316781549035 46 34 38
-0.7282966169880895 2.026368816323644 2.636051523482513 178 145 162
-0.690961833393912 2.0428757075566346 2.805186772457556 81 54 69
-0.6226001454260168 3.2107951172266107 5.077775582270531 191 158 165
-0.728301859926961 2.0372006816158446 2.9150745752589513 208 189 195
-0.5904772376381635 2.392401972316038 3.446104010181233 135 126 147
-0.8927781514797102 3.5908587433206396 6.593243405597994 173 153 162
-0.6554998150295391 2.742100403202293 4.324765062732863 52 10 22
-1.3738015823877625 2.800120570008279 7.727993916482952 177 165 169
-1.1346536771175777 2.0546080761987757 4.260047916961225 49 30 34
-1.1400639437986366 2.3147169077050704 4.914348058346821 87 33 46
-0.9445149225606754 3.8778769643510147 7.409490875778884 189 181 178
-0.8997027044986888 1.7436942715272528 2.3780157759785725 134 94 103
-1.01017703079628 2.997083272173788 5.845011860065512 181 168 177
-1.3242783015242088 1.825749452436441 4.826681800338302 202 193 196
-0.7605874295421202 2.1428013389716054 3.241356496380845 69 34 40
-1.041172520854182 4.05174380914041 8.22616064800018 129 113 123
-0.7941889310432891 1.9530936569762232 2.836294954489072 66 57 74
-0.9111926278931461 3.6911835812725755 6.851415049353794 170 159 167
-0.8655394580282489 1.778406813679651 2.4740279726080905 100 85 90
-1.33145572360054 1.2138084350646592 3.1386766770149532 187 178 181
-0.5389124416045876 3.4124972745408106 5.272010287301324 37 2 24
-1.3852837542347212 1.8215776664251133 5.28250587967549 78 45 56
-0.9135196758163505 3.895839884211246 7.240319024116917 43 30 39
-0.995892712494382 1.8877114327783266 3.2271781257307746 111 88 108
-0.624261594221154 2.300607806935774 3.236156047324937 176 163 170
-0.9201977254477817 1.7036842686192495 2.430553623902637 161 143 157
-1.270518035572893 1.5625615929187602 3.7702759956491776 87 40 48
-0.9527547070052366 1.7404454038886685 2.748623812826357 38 13 19
-0.8473606038242175 2.24214264854034 3.643003714839274 127 94 103
-0.5108531136862207 2.3880597694241223 3.288378203858793 84 72 82
-1.2962057176552513 1.6086377240880751 4.077769297262896 168 146 158
-0.9494996437874695 1.9391744823228192 2.9167933423557706 72 40 64
-1.364645382265745 1.176209844267175 3.2880648091383926 147 129 129
-0.40669177891148195 2.5283924052738356 2.89027927405158 229 219 218
-1.3500368442242503 1.5361202430669945 4.153517919649911 121 106 111
-0.5078048273269973 3.2977483024326255 5.026870593121826 46 8 29
-0.8153467470689157 3.364125751316521 5.929978069672274 197 186 190
-0.5062866698927732 2.417553928435059 3.3292473559646214 110 104 108
-0.8996632821894318 1.7344212671977304 2.5362452698845277 123 111 115
-1.1400639437986366 2.3147169077050704 4.914348058346821 87 33 46
-0.5869752591948948 2.525120903957669 3.7414269923374963 163 125 124
-0.640348625120796 2.1429189020183443 2.938577063092805 116 95 110
-0.9920521748923155 1.8865324212968213 3.232322495997519 67 48 68
-0.7106977277438786 2.034908904282181 2.7211497846649104 161 149 163
-0.7562605733423313 1.9747061898632605 2.7723148779526445 54 22 35
-1.369372889298561 1.1355141331684804 3.2797857678003983 167 147 138
-1.0739113918804999 3.486014175318864 7.251513929357359 115 65 76
-1.0665252358957071 3.4123062797375363 6.931289789564007 160 147 165
-1.3146920070390242 1.7583698320066814 4.657262491737955 157 151 151
-0.624261594221154 2.300607806935774 3.236156047324937 176 163 170
-0.6055418064265887 2.146522055202885 2.7854424921017764 21 15 25
-0.8428119772950519 1.9685907783997727 2.709060953394936 193 181 195
-0.8493071663379612 1.951388848531654 2.8201280571794785 197 185 197
-1.3522504495051975 1.7326266386802405 4.845471516316562 142 127 134
-0.7055672398436283 2.063436451875651 2.928210717146049 174 163 171
-0.596324127758335 2.2056767477393953 2.957159756947075 198 179 181
-1.3739237415320014 1.1479718883364076 3.3379320116539644 166 162 161
-0.5460744400363836 2.6939154325777244 3.950724105940336 177 136 134
-0.6712049416341094 3.730398414660721 6.183959894570209 47 31 41
-0.557838270899238 3.494607066303233 5.462971586796678 136 98 121
-0.6689712850627634 2.094353766032341 2.9109023061991985 188 174 187
-0.5819112858176563 2.308690026953229 3.2139600298110604 121 108 117
-0.7586249707706024 2.6618692363605576 4.3681637680667365 158 146 160
-0.7635063157549485 2.605721571429561 4.209069257526577 171 127 128
-0.5523486204572625 2.3622707353626504 3.312100890104546 167 156 170
-0.5545136267697564 2.495781825960809 3.596111689071779 141 130 147
-1.1524179161456891 1.9649436359309282 4.159609803710204 60 31 36
-0.8681114104836909 1.9532442275211572 2.8188719915976255 221 188 207
-0.09725937104121535 1.0564604962407789 1.8570465846288298 209 159 171
-1.3301376238737639 1.2229091439468525 3.247122107108332 140 134 136
-0.6359819500083975 2.266226569422761 3.1825941930957713 81 61 70
-1.3334938324015018 1.450949245518284 3.9487262252532878 95 65 75
-0.6650350521469164 2.1134077617066835 2.947807299424698 23 12 20
-0.6844884819375752 2.1173370942677634 2.9922151944479825 31 21 29
-0.6424657173840423 2.183854148732736 3.0208918125272475 91 74 82
-0.7634452665786042 1.964157154520995 2.7223999675351513 162 152 163
-1.139556242060542 3.648578745037773 7.792916978730704 163 112 119
-0.6622337244288081 2.07585408558759 2.852196273433471 37 16 25
-0.7389473984116597 2.0105152830033814 2.7609974437135367 182 170 180
-1.2150767101013153 3.1052270745284174 7.169249985685784 64 21 31
-0.7103705189329823 2.031881298320213 2.798416214409545 66 50 63
-1.374527540770095 1.7741378330743098 5.1308715517665595 74 48 59
-1.3735193096839269 1.1452450561722183 3.3131561504583633 91 67 65
-1.199354429695743 1.6967537706506106 3.638317852827532 76 26 38
-0.5238804756844656 2.440004753176807 3.4047439830542556 170 161 166
-0.6952898230238731 2.0613538839045016 2.9011986125028306 141 125 135
-0.6952592715407216 2.0361284861784767 2.6907686948171836 170 162 183
-0.564184314827342 2.362421427609737 3.3274810673996407 149 137 149
-1.3669267763025814 1.7293684345376945 4.939284943679634 142 122 124
-0.8971183281948014 1.7237611752226225 2.4299803849547987 179 168 172
-1.1733488540516495 3.325214921377334 7.315566692734807 102 30 50
-0.43355471637799675 3.0886003209820787 4.475894820821509 60 30 38
-0.6168197394528899 2.307842936462595 3.242376742527037 96 79 89
-1.0384093767324365 1.8619961601344386 3.3501557764031156 212 199 206
-0.6097097271521289 2.3147236795117063 3.242074366386521 93 64 82
-1.3502297077098815 1.2031623964006835 3.299150461150179 129 124 130
-0.7103705189329823 2.031881298320213 2.798416214409545 66 50 63
-0.8215376828345203 3.1986637958734625 5.604000825852703 141 130 134
-0.5332318030641449 2.359678611578183 3.2831174350158188 183 181 186
-1.3506965711752352 1.205075850695079 3.2969948617282543 134 124 132
-0.7676326310911743 2.6884142379499627 4.453277956441017 139 129 153
